69,-2.02457523346,-46.9952201843,-51.4338378906,-50.7955169678,-54.3359413147,-54.6482849121,-49.7101211548,-16.7933540344,-8.11748504639,425.806274414,515.982177734,374.113800049,333.4190979,256.37588501,210.085571289,381.424163818,435.493896484,1268.53417969,1917.6895752,996.08190918,1019.03704834,49.9288902283,0.375126957893,79.1348114014,18.0355548859,91.4740753174,232.801315308,195.026672363,271.823699951,664.924926758,558.311096191,40.6892852783,-29.5495853424,-56.0958175659,89.2237014771,112.548149109,122.080001831,-67.1541061401,58.1303710938,7.84931087494,0.733333349228,35.5570373535,18.0355548859,3.18666672707,145.522964478,-0.283925205469,-66.184715271,-268.988342285,165.880081177,44.2237052917,-44.3368492126,-39.9246330261,0.720834732056,118.20740509,402.493347168,515.711120605,84.6874084473,-211.11630249,-1175.54309082,-1899.92346191,-1580.92773438,-307.752655029,-128.460342407,-109.209869385,-281.07232666,309.125915527,1428.13330078,1938.11108398,2310.47705078,2611.03100586,2831.72583008,2949.18359375,2752.82666016,1869.95410156,2111.89624023,1625.42224121,1659.22216797,906.248901367,-266.373962402,-1063.85095215,-1520.78894043,-1407.08068848,-1204.50158691,-1578.6862793,-1887.03344727,-1976.88879395,-1441.98999023,-3047.546875,-3594.43261719,-3513.61791992,-2977.125,-3186.06469727,-3239.8359375,-3149.09716797,-3067.02832031,-2998.93212891,-2796.36865234,-189.622558594,-134.51776123,502.333343506,1112.9777832,525.891845703,405.946655273,285.48147583,119.0,175.911117554,229.365921021,183.952590942,156.800003052,-170.374099731,-169.525253296,-79.6949768066,-62.4218902588,-65.386505127,-35.278793335,-4.4186167717,-25.9566726685,-5.43242120743,-8.15514659882,-12.0212583542,-5.91061973572,204.065185547,52.8948135376,6.57027864456,-13.1484670639,17.1925926208,23.0133342743,-4.8332285881,-7.18023490906,37.6844444275,48.3629646301,101.582221985,71.3866653442,3.51259255409,363.002960205,505.866668701,981.259277344,1112.14221191,1186.96887207,729.832580566,567.933349609,273.289093018,184.807403564,292.839996338,331.42666626,307.096282959,268.620727539,195.733337402,203.134811401,73.5259246826,273.399993896,187.14074707,37.9348144531,240.78666687,1282.35253906,655.296325684,490.600006104,292.874084473,300.368896484,437.85333252,648.518493652,184.980743408,114.199996948,66.0029602051,16.5614814758,41.8444442749,39.906665802,12.7481479645,30.0088882446,37.4770355225,19.6888885498,241.253326416,351.749633789,369.905181885,126.382225037,-7.96048784256,68.6829605103,549.551086426,836.145202637,390.194061279
68,472.022216797,112.529380798,-26.6182823181,-46.6978530884,-50.2010383606,-53.069480896,-54.9780387878,-26.5395317078,104.722267151,126.577735901,418.031677246,351.711578369,870.477478027,1129.96386719,1533.09936523,1376.45959473,984.34387207,645.522033691,608.724914551,401.5597229,299.567901611,590.794067383,908.341003418,9.20938301086,241.900741577,184.809875488,198.764678955,208.706665039,389.576782227,458.777679443,676.637023926,217.848388672,267.109130859,-90.453994751,-89.4309463501,-16.3294906616,-45.7044219971,70.7308654785,9.3910074234,-32.518081665,-31.1655864716,18.241394043,-9.82676124573,73.8354797363,216.455795288,96.9333343506,-52.3399467468,23.3587303162,272.570953369,-14.4169206619,-45.5348243713,-24.5118236542,49.682964325,1.0,158.893325806,278.325927734,818.561096191,92.8718643188,-194.930938721,-1546.3425293,-1498.73706055,-359.285705566,-129.247558594,-195.851455688,76.0572814941,607.562988281,1532.64294434,1996.57775879,2324.44091797,2583.44433594,2630.4050293,2717.94726562,2900.21337891,2101.11743164,-103.907829285,-227.880432129,-388.773773193,-379.323272705,-1472.4864502,-838.036193848,-1061.7487793,-940.862915039,-1231.93945312,-1332.21337891,-1849.61560059,-1903.203125,-1600.96582031,-3101.10546875,-3693.72314453,-3271.12670898,-3103.43432617,-2339.32446289,-1399.59875488,-1526.44592285,-2250.28442383,-804.44317627,-174.969497681,-158.824645996,121.181236267,964.102233887,477.108642578,353.807403564,301.678527832,276.156555176,251.479019165,199.051849365,409.855316162,278.159515381,238.733337402,254.232589722,73.0004882812,-50.0577888489,-11.4142990112,195.465682983,-40.2179412842,1.13827157021,21.1501235962,9.15999984741,70.911605835,121.374320984,82.3629608154,153.666168213,186.973327637,299.496307373,9.06962966919,37.7777786255,36.9777793884,-5.59426927567,20.2577781677,18.7318515778,43.6938285828,77.5999984741,68.9688873291,63.3881492615,64.4592590332,418.688903809,700.161499023,998.131835938,896.382202148,901.253356934,872.291381836,208.812713623,371.172332764,287.837524414,304.164459229,315.807403564,241.528396606,271.272583008,153.6953125,292.272583008,314.200012207,173.888885498,148.400497437,231.102218628,1501.40441895,1067.87902832,416.749633789,201.762466431,433.555053711,613.574829102,864.73828125,142.894821167,48.5422210693,52.046421051,260.091369629,132.525924683,27.3160495758,31.1051845551,49.7555541992,68.3367919922,50.7308654785,28.5155563354,722.92199707,465.552581787,625.675537109,215.814819336,172.917037964,498.642974854,790.590637207,1055.9609375
67,360.933319092,274.561981201,358.670135498,19.7007408142,-17.9216403961,-45.4373512268,-32.4883041382,-26.6466655731,-24.4639797211,-25.4776096344,36.4402542114,57.2101516724,500.877593994,586.034790039,350.11026001,668.89666748,598.822692871,151.338165283,177.981445312,383.256286621,704.567871094,479.017791748,584.494812012,100.605430603,186.431106567,86.6024703979,201.216293335,341.155548096,341.0418396,280.970367432,169.68888855,333.678527832,526.921508789,477.534820557,504.821777344,423.362976074,-15.6960744858,203.698760986,167.83555603,105.128890991,118.901237488,89.222442627,19.8829631805,258.346679688,291.727661133,343.444458008,208.156219482,286.947174072,190.226669312,54.236541748,-70.7361831665,-38.8155097961,-18.8881244659,-16.5766201019,59.6622238159,170.437042236,455.345672607,1244.10424805,811.563293457,100.233642578,-911.925170898,-974.741638184,-110.623840332,-65.0529785156,273.891357422,298.753082275,1568.47412109,2083.48535156,2404.81884766,2452.26660156,2146.43457031,1999.48791504,2317.62231445,498.8409729,-258.442138672,-255.959121704,-362.848236084,-742.551025391,-274.444458008,-207.823684692,-316.71383667,-437.159332275,-330.447784424,-270.182678223,-1540.22106934,-1516.75537109,-1765.85461426,-3185.09130859,-3699.46313477,-3585.80419922,-3579.47314453,-1485.38806152,-1353.16723633,-1321.30371094,-752.157592773,-410.760681152,-343.686584473,0.0,691.239501953,1011.45776367,429.049377441,236.118026733,137.949630737,211.146179199,178.427154541,333.940734863,111.173828125,80.9792556763,102.271110535,209.747161865,203.960494995,-24.209280014,-11.9763422012,-10.2260437012,30.4162960052,60.2814826965,4.04839515686,61.5466651917,137.544204712,71.3496322632,79.3777770996,86.5693817139,104.377281189,608.728881836,31.2083950043,35.6320991516,-2.1759853363,25.5846920013,59.644443512,12.0340738297,35.7111129761,30.4879016876,83.2177810669,58.9417266846,131.033584595,122.222221375,319.219268799,554.039978027,390.10369873,638.737304688,583.666687012,553.32989502,435.663208008,466.362976074,441.631103516,216.819747925,416.050872803,461.614807129,331.502716064,287.600006104,281.325927734,228.774810791,71.5229644775,544.98223877,832.332336426,696.837036133,323.874084473,438.051849365,274.201965332,702.647399902,1401.9753418,203.43258667,1448.43994141,194.647399902,121.315551758,87.9185180664,23.6029624939,148.90222168,246.595550537,359.522949219,205.350616455,200.013336182,455.08493042,583.484924316,788.004455566,584.202453613,429.771850586,285.940734863,354.586181641,687.186645508
66,106.333335876,71.7718505859,115.98815155,17.355556488,338.200012207,-14.4304199219,-31.8699035645,29.1367225647,25.452041626,20.1106948853,302.683746338,78.1342773438,51.4162826538,380.157196045,252.897216797,383.027923584,211.625198364,269.584960938,174.257400513,325.31729126,1058.48144531,540.582214355,601.647399902,278.079986572,233.017776489,94.3429260254,230.562957764,351.333343506,187.180740356,266.611846924,156.022216797,177.850372314,410.85333252,410.85333252,517.457763672,522.565734863,404.533325195,299.269622803,248.002792358,183.893325806,160.762969971,89.5318527222,203.399993896,310.051849365,281.219268799,83.9294128418,286.193481445,-4.99959230423,156.724441528,-145.912887573,-95.8550186157,-43.4055557251,-18.6171684265,4.55555534363,123.746665955,129.148147583,40.7007408142,-38.9195556641,1019.10333252,-7.18410730362,-500.767089844,-605.354003906,-191.147445679,-61.6998138428,176.09777832,956.237060547,1767.39550781,2251.67700195,2499.86376953,2113.50219727,1599.45922852,331.485931396,339.733337402,-299.207427979,-303.030853271,-289.660247803,-487.267669678,-187.204696655,-32.2961235046,478.001495361,102.118515015,594.719970703,353.931854248,-134.745986938,-292.289764404,-1178.73266602,-1584.43969727,-3222.8984375,-3708.25830078,-3314.08691406,-3050.93188477,-2038.92651367,-1366.99035645,-549.91986084,-373.581817627,-273.917510986,-88.572593689,689.161499023,876.488891602,443.773345947,197.629623413,42.0814819336,29.3377780914,126.300743103,258.028137207,265.044433594,166.505187988,79.9481506348,-213.557479858,-43.7439727783,-50.4010734558,56.8088874817,16.0829620361,80.10962677,74.7644424438,96.0962982178,78.7362976074,65.9866638184,75.3985214233,51.2903709412,61.555557251,208.728881836,58.0533332825,15.7911109924,30.7807407379,61.5111122131,9.81333351135,75.004447937,78.6429595947,26.8533325195,48.0888900757,16.7911109924,77.8311080933,42.1288871765,15.8948144913,265.133331299,346.23260498,627.13482666,441.577789307,542.293334961,613.385192871,647.566894531,459.466674805,597.628173828,478.359985352,771.725952148,400.598510742,483.14666748,354.931854248,296.854827881,180.888885498,153.36000061,37.7718505859,336.626678467,1345.23852539,1002.7555542,632.924438477,787.90222168,1150.48291016,1189.32885742,1441.34069824,747.533325195,507.066680908,956.579284668,569.927429199,133.888885498,181.79258728,528.063720703,330.568878174,372.014801025,468.48147583,694.506652832,1124.88439941,749.87109375,787.337768555,416.10369873,544.247436523,148.813339233,206.637039185,292.61630249
65,-13.9058818817,-49.9164962769,-30.0962810516,327.570373535,-39.5292549133,-47.757270813,-17.4343242645,188.53855896,179.067184448,174.844192505,457.812103271,255.808364868,370.111755371,71.5547943115,113.287002563,286.621368408,399.246246338,508.844390869,908.349304199,580.807678223,1033.22216797,1313.5703125,1291.20251465,1192.75805664,1681.31848145,1551.61730957,1391.53833008,115.555557251,224.11895752,157.0,493.233551025,200.743209839,368.893829346,439.207397461,431.483947754,473.96295166,377.799987793,325.943206787,279.44140625,258.229644775,279.543212891,178.155548096,147.518814087,202.98765564,209.288894653,324.777770996,186.069915771,64.0444412231,294.303710938,-242.474090576,-178.503967285,23.4608097076,61.1506156921,60.6543197632,134.155548096,220.716049194,437.558013916,-228.907348633,-35.6207618713,-280.690338135,-359.201293945,-677.585632324,-829.712646484,-107.76815033,154.037033081,695.0,1978.91113281,2452.73828125,2547.03955078,1763.99255371,-1.14012122154,-622.366333008,-204.337493896,-816.665161133,-1953.24291992,-2064.41088867,-906.500061035,-172.318634033,-229.442001343,104.1043396,781.481506348,844.17779541,633.088867188,185.417572021,-188.962371826,-725.057617188,-1934.05297852,-3788.24755859,-3338.8203125,-3081.66723633,-2783.93530273,-2578.18188477,-1116.70263672,-478.136749268,-238.331161499,-281.424621582,156.214813232,784.182739258,434.303710938,344.200012207,231.925918579,-44.5958595276,-21.1877536774,69.750617981,223.923461914,223.074081421,125.503700256,55.5827178955,-4.82952260971,-55.4067001343,-23.2279109955,99.0074081421,40.9679031372,34.3802452087,186.066665649,239.246917725,60.3679008484,67.2222213745,85.1999969482,124.659255981,1041.44445801,47.9679031372,66.0271606445,3.54074072838,53.4740753174,68.7654342651,49.7111129761,25.4814815521,80.4271621704,21.3481483459,32.3333320618,25.8888893127,118.059257507,51.6691360474,86.9432067871,411.222229004,529.041992188,339.279022217,538.577758789,675.313598633,462.48147583,459.641235352,577.637023926,573.883972168,468.577789307,409.03704834,372.834564209,344.733337402,307.488891602,203.283950806,141.666671753,224.671600342,93.9407424927,229.866668701,896.903686523,1319.45678711,1057.33337402,1070.26916504,699.676513672,1022.74072266,1100.90124512,1387.79260254,1424.4666748,1908.80737305,1678.40991211,244.037033081,83.8074111938,488.167907715,217.740737915,505.353088379,434.395050049,596.933349609,625.854309082,591.101257324,506.488891602,79.9382705688,12.9604940414,11.3037033081,12.7975311279,16.5358028412
64,-46.7777786255,-76.5395584106,-73.6174240112,-68.8670806885,-52.9046516418,-30.7627925873,-30.0913066864,-25.142747879,-20.0676651001,-17.2419204712,48.0620498657,46.2279243469,78.2333984375,128.466171265,293.677093506,424.0362854,1223.22375488,392.966125488,981.637451172,575.012390137,868.511108398,784.299255371,917.958984375,778.280029297,1681.41625977,1831.37536621,775.573303223,680.740356445,277.645446777,298.200012207,318.240356445,343.479492188,263.303161621,373.45602417,452.487579346,428.540740967,391.594604492,364.873443604,199.976760864,220.758514404,148.037033081,138.543212891,107.15259552,84.8296279907,90.8651885986,20.6222229004,-54.7774963379,24.2632102966,73.8014831543,1.6308453083,-321.381103516,13.5482110977,-188.074645996,-72.1906661987,129.043136597,429.827423096,516.217773438,899.125915527,-161.247055054,-198.934555054,-455.122802734,-1019.12133789,-874.919799805,-1011.97015381,-31.6759605408,692.61730957,1985.86071777,2553.46264648,2760.2824707,1364.82519531,-249.600524902,-347.231628418,-1502.98583984,-2279.94018555,-2662.47094727,-2102.11401367,-1242.21716309,-223.386383057,-161.509872437,96.5565414429,113.234565735,490.271118164,-101.000305176,-106.916488647,-375.746704102,-659.143005371,-1288.0769043,-3381.36376953,-3076.9753418,-2820.44067383,-2408.94848633,-1798.98193359,-1614.96472168,-281.956451416,-319.723632812,54.8924713135,267.331848145,453.280487061,316.463195801,352.839996338,240.20741272,-74.4222640991,66.851852417,119.336296082,207.434066772,192.51852417,167.906661987,117.257286072,31.6888885498,-20.0797348022,81.5901260376,28.6725921631,65.1555557251,170.248886108,184.40296936,184.866668701,184.691848755,143.044448853,115.595558167,202.138763428,319.251861572,85.4804916382,36.5792579651,12.2785186768,94.8059234619,95.5999984741,99.5422210693,116.829627991,49.7822227478,31.7999992371,44.7604942322,47.1837043762,52.186668396,107.728889465,72.4172821045,370.488891602,446.223205566,249.715057373,463.423706055,406.722961426,234.15802002,306.051330566,475.750610352,267.773834229,367.535797119,364.160491943,476.576782227,367.069641113,291.805938721,192.084442139,180.703704834,162.897277832,85.7935791016,61.9688873291,239.960983276,295.943206787,629.656311035,798.841003418,560.559997559,1119.78222656,1096.65429688,1167.86914062,1502.03112793,1116.56884766,954.076049805,812.533325195,186.590118408,266.480010986,308.051849365,928.444946289,1004.50372314,975.671081543,554.664672852,411.804443359,158.988143921,104.92098999,242.82963562,456.897766113,6.82419776917,12.2488889694
63,-68.8000030518,-99.3822250366,-83.8533325195,-73.4133300781,-54.093334198,-39.5111122131,-15.6000003815,-19.8755550385,1.03284680843,266.142181396,211.984588623,27.2680530548,285.420196533,151.008804321,777.806152344,906.057739258,1013.98193359,1117.31555176,1336.85168457,520.733764648,811.466674805,731.706665039,1250.77783203,723.617797852,1052.38671875,1866.91113281,1563.54223633,1491.31994629,385.430114746,417.088897705,255.666671753,280.662231445,166.484451294,272.160003662,407.90222168,329.244445801,380.880004883,378.702209473,318.484436035,234.173339844,313.933319092,149.733337402,126.546669006,102.586669922,61.1422233582,-122.599998474,-98.9733352661,-84.73777771,-123.680000305,-107.711410522,-270.644439697,-114.973335266,-215.302215576,-362.073822021,-260.605438232,230.977783203,649.093322754,211.14666748,-34.4931297302,-244.227325439,-1047.79760742,-1685.05114746,-2267.9921875,-1599.63525391,-93.1732940674,598.044433594,2105.30664062,2688.19116211,2443.59106445,151.013336182,-1552.55297852,-2027.69384766,-2500.32104492,-2738.26538086,-2754.16748047,-2065.16503906,-1402.67163086,-1287.16052246,-544.772094727,-822.61730957,-1119.78308105,-1073.91455078,-1585.66711426,-1468.86669922,-474.0,-458.222229004,-629.82220459,-1504.11999512,-2164.12451172,-1952.58666992,-1428.59997559,-973.946655273,-902.046264648,-184.626663208,3.70666670799,655.422241211,720.053344727,577.204467773,339.213348389,135.399993896,-98.8664245605,16.9777774811,124.959999084,99.0,84.1777801514,103.800003052,192.63999939,159.759994507,168.679992676,160.008895874,101.711112976,38.8266677856,193.63999939,169.320007324,126.306663513,162.066665649,151.839996338,171.279998779,117.595558167,316.413330078,195.066665649,74.6800003052,19.8755550385,116.279998779,88.8311080933,111.066665649,102.839996338,93.9111099243,125.493331909,66.0666656494,132.711105347,161.595550537,186.773330688,107.017776489,34.3111114502,240.600006104,451.777770996,388.399993896,428.14666748,487.053344727,292.533325195,369.359985352,311.288879395,247.088882446,303.487060547,342.866668701,365.857788086,311.906677246,242.626663208,178.3777771,211.399993896,230.093338013,248.493331909,162.679992676,179.777770996,104.422225952,162.346664429,97.8222198486,211.95111084,805.693359375,1735.06665039,944.444458008,967.960021973,865.084472656,767.075561523,446.799987793,385.533325195,277.635559082,531.799987793,855.408874512,558.799987793,324.720001221,462.137786865,81.551109314,112.36000061,390.822235107,361.226654053,599.746643066,635.582214355,194.195556641
62,-84.4888916016,-115.009384155,-98.4632110596,-66.8503723145,-54.7762947083,-42.2246894836,-29.8251857758,-2.50635743141,5.21442604065,7.43770503998,14.9220476151,238.187133789,102.793296814,1352.91748047,258.13192749,84.4725875854,1575.16760254,657.524780273,4067.44140625,1245.47277832,792.469116211,1199.09631348,812.653808594,1369.1373291,827.708129883,1270.12841797,1834.07165527,1021.2666626,901.20690918,187.502227783,723.659240723,200.401977539,215.129882812,158.643478394,163.581726074,373.412353516,437.973327637,376.335296631,378.336791992,290.205932617,293.770355225,230.423706055,70.5940704346,44.2483940125,-41.6488876343,-144.3777771,-153.879501343,-165.234069824,-134.240005493,-214.386169434,35.9851837158,46.4399986267,346.785675049,289.549621582,-129.04888916,-185.891357422,-157.146179199,-2.63805913925,-368.356994629,-449.796051025,-1501.69946289,-2468.56738281,-2602.65527344,-2753.92895508,-2798.59375,-148.243637085,1402.84887695,2384.62231445,2268.10327148,-223.951690674,-1225.8815918,-2418.61254883,-2795.70483398,-2917.84106445,-2493.45849609,-2081.69897461,-1477.80004883,-735.868774414,-1519.36743164,-1609.23168945,-1806.51098633,-1852.82666016,-2233.12255859,-1538.38464355,-1239.81774902,-853.777770996,-118.916542053,-124.84740448,-577.038513184,-1561.43505859,-404.666656494,-367.922454834,-212.160980225,419.868133545,1337.02612305,814.548156738,751.656311035,594.014831543,196.149627686,-74.8000030518,-139.567901611,88.8666687012,143.863983154,140.230117798,102.468147278,79.7259292603,171.449386597,69.5441970825,93.7022247314,126.34172821,161.054321289,157.770370483,79.6632080078,90.1841964722,156.949630737,130.291351318,141.076538086,187.093338013,146.427154541,193.823699951,224.14074707,111.649879456,140.310119629,73.4977798462,32.8661727905,110.960494995,71.1244430542,54.2469139099,62.9930877686,79.0711135864,82.0617294312,85.478515625,117.914077759,66.9560470581,204.35357666,262.155548096,378.235076904,373.448394775,551.92590332,367.970855713,411.646911621,426.856292725,504.204925537,400.941223145,271.679321289,331.612335205,405.446411133,339.394073486,221.932342529,195.265686035,234.118515015,336.263702393,247.094314575,249.871109009,308.395050049,137.728393555,220.199996948,134.639007568,290.481964111,1254.99560547,1410.9777832,1472.20092773,1517.7689209,1471.51208496,661.351135254,438.414825439,788.362487793,533.857299805,394.565917969,463.492340088,198.807403564,328.90222168,-17.7359428406,323.07901001,335.764434814,1026.61730957,354.630126953,9.50222206116,-47.0034561157,-77.1753082275
61,-187.466659546,-151.246414185,-117.735305786,-79.931854248,-64.5190124512,-39.750617981,-29.0,-8.10024738312,1.10981786251,7.66808128357,364.957977295,217.973251343,211.246444702,386.136932373,22.9573860168,-10.5909948349,-4.5946097374,996.032470703,632.025634766,1716.86999512,4070.01489258,1406.51550293,1138.48547363,1121.27600098,1048.3659668,1567.40734863,1903.06860352,824.613342285,739.252868652,463.980255127,293.444458008,225.51222229,152.889877319,154.631103516,171.491851807,328.002471924,463.293334961,433.196533203,371.076538086,390.511108398,345.970367432,221.539749146,157.78666687,-21.8210926056,-114.884941101,-139.644439697,-169.868148804,-192.595062256,-196.324447632,-165.565933228,-87.4839477539,-9.57316684723,244.29284668,379.083465576,481.998962402,112.53086853,-394.047912598,-856.282958984,-317.266662598,-620.00012207,-2107.11132812,-2771.20068359,-2843.96142578,-2948.02709961,-3000.01391602,-2826.61791992,66.2681503296,148.564987183,1729.9041748,-384.44543457,-2283.51318359,-2775.5546875,-2912.875,-2937.15356445,-2403.32910156,-1806.02990723,-899.980163574,-1548.29040527,-1879.34375,-2085.18725586,-2395.47973633,-2462.09326172,-2456.0559082,-1723.83007812,-1189.44299316,-1093.26416016,-201.461730957,-247.955551147,-1133.32043457,-245.504196167,-143.733337402,-130.600006104,-340.267150879,1037.65783691,1449.89929199,464.044433594,470.555541992,380.239990234,390.783691406,-16.3644447327,-101.212348938,33.7005691528,127.016609192,97.222328186,79.2602462769,8.09629631042,4.0,66.6513595581,33.182220459,191.393081665,174.083953857,117.986663818,189.792098999,180.796051025,161.521484375,136.419754028,184.003463745,161.168884277,175.041976929,254.101242065,248.85925293,66.7540740967,91.7333297729,70.9837036133,26.1654319763,58.4098777771,39.7733345032,48.8711128235,29.6454315186,47.2666664124,62.8666648865,97.2701263428,115.130371094,115.818763733,152.687896729,157.977783203,381.081481934,180.209869385,522.349609375,441.970855713,456.923461914,401.349639893,420.112579346,314.567901611,310.597198486,368.617279053,453.332336426,379.831115723,346.947174072,388.735809326,319.740753174,430.574829102,394.830108643,140.911117554,328.173339844,293.180236816,198.102218628,224.043945312,494.666656494,669.309631348,1306.22961426,1038.00842285,838.582214355,887.814819336,1231.80688477,1173.68151855,1116.44348145,1124.81677246,413.359985352,-91.4888916016,179.864196777,-42.0,31.7234573364,207.790130615,132.157043457,793.283935547,683.463684082,-105.026664734,-1714.30126953,-2395.83349609
60,-2674.66674805,-136.370376587,-133.088882446,-100.199996948,-68.6222229004,-55.0740737915,-26.2666664124,128.306716919,5.09306669235,2.77901697159,773.763061523,137.405319214,129.123077393,650.19744873,-40.8370361328,1365.12512207,66.3157653809,-96.4321365356,-8.48695087433,-58.7450790405,773.806396484,1114.35559082,1667.50366211,1020.88146973,931.733337402,1205.40734863,799.637023926,1046.33337402,462.185180664,459.513275146,467.257507324,686.274047852,291.119415283,297.911102295,198.066665649,373.074066162,440.0,457.392578125,411.296295166,352.399993896,279.370361328,274.274078369,157.133331299,-85.9851837158,-115.177780151,-132.333328247,-175.3777771,-191.940734863,-139.199996948,-146.614822388,-122.370368958,-24.0222225189,101.117126465,219.632766724,196.312164307,13.4585866928,-95.4666671753,-242.044448853,-37.0102996826,-179.51852417,-1805.22216797,-2755.17456055,-3168.12792969,-3244.70825195,-3290.36962891,-3120.1184082,-2935.75805664,-119.022636414,84.3666687012,-1141.38085938,-2489.3828125,-2994.52978516,-2998.38208008,-2558.32226562,-2186.94287109,-1368.88891602,-1720.4519043,-2144.39990234,-2135.77783203,-2669.98510742,-2727.70361328,-2656.33325195,-2139.07397461,-1247.4519043,-1174.75561523,-1061.33337402,-730.666687012,-1042.73327637,-160.718521118,-85.3629608154,-130.0,-100.162963867,-279.918518066,36.2079086304,1215.80004883,120.925926208,321.229309082,341.148162842,107.859260559,27.7333335876,0.0,-0.724855959415,1.66283774376,-53.4000015259,-4.54488277435,3.52955555916,30.674074173,109.340744019,187.0,144.407409668,167.555557251,227.511108398,169.148147583,114.022224426,186.266662598,192.925918579,208.718521118,166.933334351,154.318511963,372.488891602,250.111114502,72.5629653931,75.8666687012,46.2888870239,43.9185180664,67.444442749,55.4666671753,86.9185180664,94.5481491089,51.444442749,57.1111106873,82.2518539429,149.0,169.85925293,156.82963562,112.333335876,492.296295166,616.377807617,482.288879395,274.429626465,334.555541992,364.888885498,365.977783203,387.762969971,323.133331299,417.740753174,397.770355225,371.333343506,603.503723145,384.244445801,246.666671753,440.725921631,461.651855469,608.133361816,324.822235107,357.925933838,233.888885498,288.711120605,302.214813232,856.888916016,693.555541992,507.740753174,302.399993896,356.237030029,81.2740707397,506.777770996,504.111114502,87.5703735352,-101.666664124,-152.82963562,-123.03704071,312.866668701,2.4040851593,-29.3407402039,-293.6222229,-77.615562439,-2653.62963867,-3257.46655273,-3512.49633789,-3324.31103516
59,-3543.13330078,-149.435058594,-134.255310059,-124.552589417,-91.5333328247,-71.0740737915,-41.8651847839,-31.8202476501,-24.1056785583,-8.92444419861,111.962684631,43.9584350586,241.785934448,367.015686035,-147.527816772,-211.85925293,-256.216308594,-3692.75073242,-3713.58374023,-2394.35424805,-131.265487671,535.930847168,953.928405762,1533.96398926,926.038513184,1613.52099609,1198.46374512,1506.71105957,669.429138184,482.175323486,396.259246826,341.79901123,819.35949707,637.321472168,215.593093872,209.0,363.737792969,309.628631592,377.504211426,375.959991455,295.762969971,279.315063477,162.248886108,-40.9718513489,-84.2004928589,-131.955551147,-174.873580933,-153.890869141,-134.419265747,-139.454818726,-107.96295929,48.8562965393,154.134811401,196.43901062,207.559997559,118.328392029,-43.0730857849,-9.75135231018,735.032104492,-145.705673218,-771.281494141,-2956.26171875,-3216.44091797,-3307.94604492,-3460.31176758,-3413.9675293,-3220.49169922,-2501.68603516,-1771.81445312,-2454.80224609,-3001.47290039,-3064.64794922,-2612.61743164,-2485.79638672,-1607.2467041,-1642.9630127,-2107.32543945,-2450.86669922,-2625.57324219,-2879.34521484,-2824.33569336,-1112.05334473,-1149.28051758,-532.575317383,-1762.28442383,-1255.84692383,-1371.53881836,-80.2192611694,-58.504196167,-72.3718490601,-136.266662598,-111.695304871,-284.699249268,16.3103904724,769.086425781,29.9357662201,182.789627075,56.1412353516,67.1244430542,4.54666662216,-139.545684814,-16.4256782532,37.2459259033,109.130867004,55.4646911621,85.3259277344,61.643951416,196.543212891,129.911117554,106.838027954,153.960494995,175.474075317,188.99357605,175.152587891,194.845932007,181.637039185,211.026168823,240.702224731,138.26864624,304.429138184,224.511108398,88.0162963867,72.2350616455,94.1348114014,45.2666664124,91.4246902466,74.7688903809,77.80493927,98.7101211548,72.4992599487,51.0617294312,64.4409866333,111.583702087,109.898765564,112.586669922,153.844451904,178.527908325,555.256774902,358.459259033,323.814331055,296.227172852,308.839996338,399.754058838,536.954589844,421.737792969,534.281494141,365.959014893,980.306640625,664.733825684,681.143188477,384.259246826,429.964447021,450.276062012,415.791107178,543.650878906,354.039520264,268.925933838,478.152099609,530.330871582,632.714050293,697.496276855,2.58602643013,-100.312461853,-76.3330230713,-96.6083984375,-95.2148132324,403.448394775,-70.7048416138,-99.3318481445,-111.517532349,98.6913604736,533.04888916,37.7076530457,-2091.12792969,-2990.29785156,-180.953079224,-2992.40136719,-3488.44897461,-3636.12402344,-3709.24194336
58,-3774.24438477,-3554.31762695,-3144.39208984,-395.605102539,-105.223701477,-84.1037063599,-69.3940734863,-59.6108627319,-45.885433197,-35.5111122131,-25.869134903,-27.3595066071,361.187103271,-195.355560303,-165.809875488,-271.066680908,-2008.73156738,-4350.19482422,-3671.09765625,-3661.08300781,-3359.67626953,-246.238739014,431.350616455,48.6575164795,1760.74365234,982.846923828,1348.9263916,1304.78222656,1430.54272461,652.217285156,686.17779541,424.355072021,364.98815918,294.785186768,338.619750977,406.427154541,537.01776123,421.941223145,424.141235352,351.862213135,370.693817139,315.065185547,221.217773438,62.0666656494,-35.0162963867,-85.3333358765,-133.203948975,-134.785675049,-163.351104736,-123.290863037,-131.797531128,-67.8607406616,173.039993286,224.616790771,289.093322754,201.516052246,177.455795288,345.508148193,725.906188965,-147.019958496,-221.674072266,-2645.85083008,-3121.98803711,-3433.66210938,-3380.12524414,-3485.48754883,-3346.73046875,-2519.1015625,-3071.53955078,-3183.19995117,-3155.01538086,-2902.97949219,-2410.19555664,-2314.39257812,-1364.60778809,-2184.88891602,-2327.3515625,-2804.03613281,-2897.59399414,-2997.73046875,-1635.15808105,-799.271118164,-1100.7298584,-247.453674316,-1834.30957031,-1962.00488281,-60.4933319092,-46.5362968445,197.678512573,-85.5446929932,-123.711112976,-86.3960494995,-97.2118530273,-296.142211914,-185.775802612,-121.199996948,137.816299438,266.180236816,139.272598267,-143.21333313,-100.155555725,-2.14358448982,-15.7807407379,57.3950614929,28.0,44.503704071,86.2296295166,164.058273315,185.933334351,144.688400269,158.264190674,159.826660156,133.178268433,109.312095642,117.608886719,180.214813232,215.578277588,217.919998169,88.5338287354,318.706176758,211.48147583,112.899749756,88.7861709595,56.6118507385,44.6202468872,52.5259246826,106.42666626,109.779754639,115.994567871,128.337783813,110.130867004,109.242469788,87.1155548096,122.202468872,151.39654541,174.422225952,120.236541748,212.07258606,376.527404785,259.487915039,317.829620361,332.357025146,630.857299805,495.427154541,517.98223877,470.797515869,728.416320801,809.27557373,1147.41186523,562.541259766,600.429626465,678.467163086,652.68145752,1046.91552734,844.281982422,1412.75805664,720.441467285,776.266662598,384.357543945,821.980712891,602.844421387,-113.209190369,-201.595550537,-173.399993896,-137.105178833,-163.20741272,-181.522476196,-341.6222229,-125.223701477,10.7197380066,208.439498901,-0.756860852242,-2300.39892578,-3694.52685547,-3571.22973633,-1458.11108398,-3261.17480469,-3633.31713867,-3738.29541016,-3776.62036133
57,-3796.80004883,-3706.75708008,-3391.93774414,-966.97265625,-179.217773438,-66.0740737915,-76.7111129761,-75.1125946045,-67.8429641724,-61.1199989319,-58.7481498718,276.625335693,-230.462219238,0.143273890018,-83.7136154175,-2712.43139648,-4561.52587891,-3924.75268555,-3776.87988281,-3639.66821289,-3415.40991211,-2922.23461914,-137.353134155,78.2640075684,1399.28894043,1258.4888916,1255.33032227,1625.33337402,1709.97631836,944.971862793,748.711120605,718.277038574,741.976318359,568.266662598,459.702209473,572.07409668,470.959991455,558.610351562,419.525939941,361.497772217,307.600006104,265.211853027,204.248886108,101.026664734,8.09185218811,6.19586038589,-40.3925933838,-78.10962677,-164.995559692,-118.093330383,-64.7111129761,-35.5384559631,213.202957153,325.122955322,372.173339844,364.874084473,278.035552979,388.182220459,639.499267578,241.592590332,-112.3777771,-1866.79260254,-2817.34667969,-3346.89331055,-3549.70214844,-3562.27246094,-3527.20019531,-3565.52319336,-3374.66748047,-3273.31347656,-3212.09912109,-3194.19848633,-2282.90673828,-1390.58374023,-2733.44287109,-2481.46655273,-2692.09619141,-2760.89208984,-2971.27099609,-2354.21777344,-980.370361328,-1304.99633789,-1064.4029541,-236.554077148,-2104.80444336,-2056.4296875,-107.094818115,-38.0910148621,602.617797852,-57.1185188293,-90.2666702271,-85.635559082,-62.0948143005,-46.0711097717,-28.2222213745,6.55555534363,-35.9511108398,147.78074646,93.0696258545,-41.0533332825,-178.31111145,41.5244445801,9.77777767181,205.293334961,95.6844482422,110.555557251,266.394073486,264.952606201,143.346664429,128.180740356,141.703704834,136.90222168,133.561477661,94.5866699219,135.555557251,112.27407074,173.333328247,79.626663208,275.589630127,259.43258667,350.466674805,161.722961426,111.58518219,53.7644462585,97.9466629028,86.296295166,95.373336792,68.5540771484,125.136299133,132.320007324,136.948150635,104.022224426,110.031112671,152.654815674,152.798522949,225.466659546,265.477050781,413.290374756,270.617767334,320.611846924,445.259246826,492.279998779,482.911102295,643.377807617,374.773345947,1140.43701172,545.225158691,990.884460449,1293.96740723,1663.4888916,1588.57775879,739.260742188,804.697753906,1024.7199707,1459.94958496,934.340759277,1080.47558594,708.589599609,412.937774658,1130.41333008,-101.541259766,-149.961486816,-177.63999939,-222.709625244,-174.223709106,-197.133331299,-418.743713379,-661.631103516,-48.1022224426,393.287414551,687.674072266,349.133331299,-3194.66381836,-3554.2043457,-3824.36450195,-1184.93334961,-3410.20751953,-3779.19995117,-3813.84155273,-3820.63964844
56,-3811.0,-3772.52636719,-3700.6706543,-3434.53491211,-3129.14233398,-284.669128418,-137.705184937,-116.022224426,-86.8335800171,-50.1733322144,488.017425537,-93.4281463623,-85.5733337402,-230.48197937,-5396.25634766,-4751.32128906,-4292.75341797,-3995.63208008,-3301.19189453,-3439.1418457,-3462.99755859,-2799.43701172,-2177.80493164,-117.847244263,69.4490585327,1023.27050781,1072.65979004,1360.81774902,672.0,562.022216797,629.148132324,585.050842285,682.915039062,562.97479248,684.936767578,525.17779541,460.533325195,472.456298828,430.007415771,332.802947998,302.933319092,242.016296387,195.700744629,136.566421509,130.240493774,161.933334351,33.9604949951,-55.0123443604,-142.940734863,-98.2088851929,-6.67487859726,-64.2459259033,266.010375977,235.977783203,358.733337402,499.785186768,390.014801025,430.18963623,451.178283691,143.956542969,-46.4814796448,-373.543701172,-2649.9921875,-3139.89770508,-3483.54370117,-3640.60742188,-3618.37597656,-3273.23193359,-3303.30859375,-3417.35180664,-3313.72949219,-2736.62231445,-2353.57788086,-1775.13525391,-2371.77075195,-2845.72583008,-2792.27880859,-3368.37231445,-2518.04003906,-1268.0814209,-1465.5333252,-1442.39111328,-324.309143066,-2174.48388672,-2754.66674805,-2054.36303711,-148.544204712,35.01953125,145.228637695,-66.4632110596,-83.7333297729,-86.3555526733,-57.5777778625,-47.2029647827,-18.9111118317,54.0271606445,2.51036381721,66.9832077026,-31.8883953094,-51.1288871765,-55.3234558105,147.496292114,50.644443512,142.876541138,148.064193726,153.525924683,177.321975708,219.974807739,218.644439697,173.771362305,110.029632568,119.872589111,136.336791992,116.545188904,57.1466674805,151.483947754,178.879501343,70.7155532837,121.99407196,270.114074707,432.844451904,161.844451904,119.360496521,104.626663208,131.428634644,133.854324341,105.346664429,103.088394165,115.642471313,122.271110535,129.785186768,148.989135742,80.6251831055,252.600006104,159.484939575,260.6222229,481.702728271,350.223693848,313.324432373,248.668640137,400.288879395,392.525939941,508.056304932,468.463195801,472.42666626,1219.64697266,815.443481445,1241.43994141,1163.33239746,1200.16394043,1005.54071045,1098.30224609,1197.59509277,955.217773438,841.890380859,1173.67651367,1125.76000977,984.239501953,1031.49829102,-53.0034561157,-161.249389648,-163.204940796,-292.937774658,-278.948150635,-317.097290039,-252.570373535,-377.959503174,-536.754577637,29.4014816284,642.197021484,187.138275146,109.075553894,-4323.30371094,-3677.89233398,-3858.72900391,-2873.5703125,-3841.79296875,-3833.61621094,-3858.29418945,-3866.30957031
55,-3827.22216797,-3781.14331055,-3729.95800781,-3589.82958984,-3470.87646484,-2835.65429688,-1163.68811035,-138.520980835,0.359650313854,-54.4957885742,-39.3670349121,-87.6962966919,-2184.61474609,-4848.30371094,-4014.96289062,-4105.74072266,-4248.21044922,-4122.56738281,-3963.42211914,-3695.22875977,-3275.65771484,-2992.96142578,-2741.27661133,-140.760314941,43.1957931519,199.753082275,1349.14074707,871.599975586,1344.5333252,1379.37280273,878.185180664,635.014831543,776.116027832,643.866638184,561.683959961,688.691345215,451.155548096,438.669128418,393.399993896,334.711120605,308.024688721,185.419754028,238.325927734,176.483947754,140.306167603,117.444442749,94.5209884644,74.4098739624,32.6666679382,-19.5012340546,-124.01234436,114.400001526,299.044433594,383.51852417,413.955566406,495.51852417,565.68145752,493.940734863,526.264221191,313.113586426,111.629631042,-42.2515907288,-316.444458008,-631.622192383,-2628.41479492,-3511.65429688,-3799.08886719,-3363.95898438,-3359.97949219,-3384.74804688,-3134.22216797,-2760.40991211,-1597.57775879,-2131.39501953,-2668.54077148,-2961.88891602,-3022.83959961,-3351.94458008,-2894.99267578,-3085.24926758,-1632.44445801,-881.022216797,-2452.49389648,-2757.77539062,-2859.5480957,-115.456787109,81.4691390991,169.955551147,97.9333343506,140.523452759,-70.0,-26.1851844788,-47.9604949951,-40.2222213745,-16.101234436,-4.91161394119,47.673034668,-47.1111106873,-75.4839477539,-26.5777778625,-22.5719280243,25.3308639526,68.592590332,158.933334351,173.800003052,158.148147583,230.745681763,228.195068359,192.577774048,179.007400513,125.728393555,144.807403564,196.328399658,173.812347412,150.511108398,129.432098389,227.691360474,232.0,91.7777786255,432.735809326,399.592590332,178.807403564,163.733337402,151.133331299,133.748153687,135.419754028,106.577774048,106.192588806,109.555557251,104.111114502,143.197525024,172.108642578,252.014816284,213.535797119,709.913574219,628.666687012,436.92098999,644.474060059,587.14074707,458.237030029,594.592590332,486.837036133,728.496276855,590.125915527,790.511108398,1486.64196777,1686.10375977,1319.43701172,862.748168945,1039.20983887,709.92590332,668.034545898,804.38269043,541.955566406,472.92098999,815.802490234,1269.10375977,464.965423584,-12.5577373505,193.703704834,-108.604934692,-131.740737915,-554.333312988,-830.259277344,-735.649353027,-366.0,-445.743225098,-497.061737061,76.6666641235,813.316040039,1377.09875488,31.8873138428,-5072.29150391,-1104.23718262,-3042.17773438,-2988.95068359,-3919.79516602,-3876.24145508,-3736.9777832,-1365.69384766
54,-262.200012207,-3810.22753906,-3748.07104492,-3655.01342773,-3222.90234375,-1891.0222168,-1629.32678223,-73.7109451294,-69.3466644287,-1011.7199707,-3019.86230469,-6127.87109375,-4911.70361328,-4570.18212891,-4633.24121094,-4109.60009766,-3978.53344727,-4130.68457031,-3940.52001953,-3848.01611328,-3492.17773438,-3293.53344727,-2844.74658203,-1364.75109863,50.9425735474,599.977783203,1634.65332031,766.640014648,673.084472656,703.924438477,1642.06665039,1179.81335449,1015.45776367,700.186645508,651.506652832,667.733337402,542.520019531,533.568908691,399.297790527,281.626678467,263.777770996,219.417770386,253.960006714,247.128890991,263.275543213,216.600006104,134.555557251,116.68888855,116.746665955,-23.6000003815,-59.7333335876,152.440002441,228.395553589,315.391113281,454.600006104,584.133361816,595.395568848,546.573303223,472.893341064,580.164428711,350.333343506,102.42666626,-156.995559692,-197.279998779,-2566.57788086,-3608.0222168,-3902.46655273,-3484.54663086,-3656.35107422,-3486.32006836,-3191.0222168,-2936.94213867,-2234.0,-2394.04443359,-2774.11108398,-3203.99584961,-3344.08007812,-3447.44897461,-3604.21337891,-3727.29321289,-1412.06665039,-2423.47998047,-2777.12011719,-1851.36450195,-419.026672363,39.4222221375,95.9777755737,-15.4892435074,-36.1599998474,324.062225342,-16.0,-63.924446106,-45.1288871765,-32.2000007629,-29.4933338165,25.3333339691,22.4855175018,-5.64215755463,25.4444446564,146.199996948,135.111114502,134.42666626,111.279998779,154.808883667,191.022216797,183.933334351,188.577774048,210.235549927,237.199996948,223.546661377,109.199996948,124.826667786,146.755554199,248.497772217,141.466659546,90.7777786255,176.600006104,305.440002441,218.488891602,749.462219238,361.866668701,191.546661377,180.0,160.960006714,166.266662598,133.577774048,52.0,97.7066650391,100.777778625,106.933334351,177.777770996,263.413330078,203.21333313,486.186676025,349.911102295,1039.40002441,400.577789307,482.151123047,1507.62670898,1541.39111328,549.977783203,511.373321533,653.320007324,712.791137695,1396.47998047,1115.71105957,1239.65783691,905.320007324,806.82220459,1162.36889648,846.0,624.799987793,474.871124268,484.440002441,615.333312988,973.866638184,251.160003662,596.400024414,498.191101074,-30.0666675568,579.755554199,-34.7022209167,-427.519989014,-1518.15112305,-1128.59106445,-847.866638184,-511.200012207,-475.631103516,45.0666656494,947.77331543,-92.1242370605,-3526.7199707,-4243.27539062,-5012.24023438,-3032.38671875,-3921.33325195,-3904.76513672,-3902.5065918,-3909.26220703,-3845.03027344
53,-1023.2444458,-3679.96289062,-3663.97827148,-3302.51123047,-2094.70776367,-119.461730957,-112.68296051,-3783.15698242,-5044.60986328,-5736.35791016,-4760.06689453,-4682.8671875,-4491.06201172,-4542.77099609,-4468.58544922,-4324.74072266,-4412.17578125,-4158.89550781,-3010.38232422,-3829.88793945,-3576.4519043,-3411.22241211,-3476.5546875,-2786.54223633,193.617782593,-199.800003052,651.495788574,936.675537109,1245.79064941,1091.4498291,2111.38525391,1934.73486328,1079.66967773,853.0,697.056274414,603.291381836,590.306640625,481.428161621,386.160980225,325.031097412,268.251861572,217.913085938,286.9140625,319.877044678,292.26272583,259.044433594,224.427658081,146.755554199,90.9985198975,1.34765434265,-43.9358024597,134.291854858,215.60987854,389.929382324,535.297790527,675.293823242,678.813354492,572.782226562,604.393554688,373.493347168,273.585174561,353.300231934,9.19407367706,-390.351104736,-459.475067139,-3330.26660156,-3816.49047852,-4007.19702148,-3805.8293457,-3618.07275391,-3632.69140625,-3690.3737793,-2756.47119141,-2942.4934082,-3158.21191406,-3172.65917969,-3413.76879883,-3563.35253906,-2851.80444336,-4062.60205078,-2689.16552734,-3653.52880859,-3325.02807617,-194.836044312,-213.666671753,-101.120986938,106.517532349,-8.88724422455,484.166900635,171.083450317,3.0,-31.2928390503,-28.8627166748,-2.93333339691,9.82459259033,89.2617263794,36.7687721252,50.2039489746,74.4869155884,68.373336792,118.980247498,124.934318542,178.838516235,169.361480713,146.927902222,134.244445801,146.798019409,154.194564819,198.21333313,222.023208618,113.241973877,160.546661377,226.04296875,257.77432251,216.860748291,102.948150635,84.4044418335,186.968887329,184.960983276,637.92199707,404.0,206.294326782,199.704696655,211.038513184,321.982727051,335.829620361,193.026672363,106.387161255,96.2523422241,128.720001221,100.802467346,249.461730957,158.604446411,313.080993652,937.996520996,704.022216797,648.128417969,1064.54711914,1179.13928223,1839.26721191,2293.64208984,609.348144531,639.184692383,809.691833496,-377.73916626,1144.78515625,961.313110352,957.306640625,778.219238281,767.817749023,598.377807617,532.517028809,430.134307861,249.231109619,304.669128418,292.054321289,616.487426758,1071.33728027,151.498764038,335.068145752,71.639503479,13.729382515,-141.6222229,-1682.48339844,-1297.90820312,-1129.09631348,-716.651367188,-345.456787109,-22.3970375061,821.083435059,-45.3382720947,-5738.60449219,-3464.11889648,-3976.53076172,-5036.61035156,-3262.86914062,-647.289855957,-3468.30224609,-3919.36254883,-3873.02368164
52,-708.111083984,-1925.68591309,-22.597612381,-88.4275894165,-123.065681458,-3369.68652344,-5187.0,-5843.03417969,-4893.23876953,-4647.27978516,-4699.49804688,-4754.37011719,-4675.82080078,-4676.28808594,-4928.74023438,-3988.41479492,-4434.94091797,-4304.51953125,-3904.39990234,-3818.44995117,-3714.1953125,-3606.08740234,-3539.40307617,-2987.17260742,-2447.36010742,-132.259262085,348.569885254,2325.15551758,1238.14916992,951.254333496,956.985168457,1886.05725098,1996.6439209,943.564208984,815.521972656,721.659240723,634.222229004,527.273071289,529.264221191,498.731842041,256.256774902,217.711105347,286.712585449,357.015319824,422.325439453,353.600006104,295.144683838,178.828643799,90.9333343506,33.9111099243,-23.0839500427,108.199996948,273.398529053,394.001983643,731.164428711,753.817260742,648.534301758,681.038513184,559.778259277,416.043457031,382.03704834,392.547668457,203.705184937,-272.85333252,-281.110626221,-2623.8815918,-3748.6015625,-4086.44873047,-4197.53808594,-4094.03295898,-2811.10449219,-3736.2434082,-3228.52441406,-3584.26025391,-3099.44995117,-3842.11108398,-3603.91601562,-3564.45532227,-3861.0324707,-3188.77832031,-3750.22705078,-4577.20019531,-3352.01928711,-366.754577637,-701.392578125,268.224700928,130.454818726,-90.6518554688,165.93699646,56.7575302124,141.022216797,-25.1545677185,-14.0868959427,43.2874069214,59.0166168213,205.728393555,74.9970397949,64.3274078369,63.1856803894,107.245788574,113.743209839,176.998519897,140.828155518,134.821731567,127.819755554,128.940734863,131.625183105,181.696289062,242.075561523,199.955062866,150.48147583,167.820739746,224.411361694,79.5802459717,52.3540725708,75.5703735352,147.877029419,233.564437866,166.448394775,446.973327637,362.755554199,255.132339478,217.84147644,239.660736084,364.050872803,303.676544189,316.440002441,219.124938965,123.433578491,151.029632568,217.269134521,182.258270264,223.598526001,353.389129639,1079.0246582,1454.59997559,1299.22717285,909.948120117,1936.49926758,1708.21679688,2020.42224121,2189.16137695,743.152099609,-151.231750488,771.799987793,1009.95800781,1092.18078613,791.044433594,694.940246582,658.405456543,746.059265137,708.821716309,754.508666992,335.702209473,280.676544189,211.795059204,475.7081604,1226.80053711,111.792098999,293.546661377,6.96543216705,49.6409873962,-88.6133346558,-1451.98913574,-1224.88195801,-944.89630127,-806.734802246,-509.31161499,-61.0103721619,248.910614014,-2945.31347656,-5919.92871094,-5391.99951172,-3826.20336914,-3626.44775391,-3837.26879883,-6802.04199219,-2955.31103516,-41.8113594055,-361.892852783
51,-3969.86669922,-4575.27685547,-3658.59106445,-5201.75976562,-6997.87695312,-6208.89648438,-5129.04003906,-4931.77441406,-4749.70947266,-4828.87988281,-4814.76318359,-4856.30224609,-4890.06689453,-4770.95996094,-4983.10449219,-4738.7109375,-4297.11572266,-4312.5390625,-3314.33325195,-3815.70678711,-3783.17041016,-3086.56445312,-3691.05322266,-3253.47729492,-2639.86132812,-1938.30371094,-89.0799789429,1139.61328125,1708.7199707,1360.41479492,1112.86669922,1477.72143555,1660.91699219,1044.81115723,728.127380371,634.92590332,601.453308105,620.96887207,615.077026367,533.817749023,474.281494141,278.5362854,253.413330078,369.546661377,431.09777832,386.466674805,311.845916748,183.533340454,102.831108093,86.4237060547,32.7333335876,193.240005493,292.197052002,378.253326416,598.266662598,703.185180664,707.558532715,448.857788086,575.155578613,251.420974731,281.412811279,-132.066665649,93.8236999512,-198.493331909,-219.939254761,-982.511108398,-3075.19116211,-3936.35424805,-4187.99462891,-4258.36425781,-4169.71044922,-4071.55249023,-4252.60009766,-4326.41796875,-3674.83862305,-3318.9777832,-3451.64746094,-4040.24438477,-3699.46655273,-3292.42358398,-3682.37036133,-4782.70654297,-4408.36132812,-721.265197754,-1712.84887695,-116.888885498,-97.6370391846,-93.6622238159,113.04888916,131.339706421,25.1930389404,0.514652431011,6.93272161484,77.9911117554,427.529876709,382.851837158,242.631103516,245.336303711,396.968902588,163.520004272,238.918518066,197.154067993,181.768890381,182.194076538,201.660736084,117.177780151,123.973335266,166.642959595,187.333328247,200.002960205,111.496299744,125.693336487,155.527404785,8.0,77.7511138916,65.7629623413,66.0118484497,90.2399978638,225.868148804,296.185180664,342.111114502,232.139251709,162.490371704,290.693328857,290.971862793,333.555541992,389.213348389,361.642974854,259.131866455,163.031112671,240.822219849,309.108154297,1194.44885254,1515.68005371,1395.83996582,1130.86669922,1888.54516602,1588.80297852,1634.40893555,2235.61035156,1998.0,1925.34667969,1270.63256836,917.358520508,1087.04003906,1109.98522949,1012.77185059,1043.7421875,806.208862305,776.857788086,818.111083984,860.595581055,519.540710449,406.640014648,139.918518066,230.511108398,790.555541992,1017.9777832,179.07258606,287.359985352,657.525939941,-51.4177780151,-123.0,-938.354064941,-1291.67700195,-1275.5333252,-1000.52886963,-692.970397949,-412.755554199,-297.576293945,-6756.72607422,-5530.61328125,-5416.97314453,-5076.44140625,-3368.56640625,-4629.16308594,-4505.73388672,-5249.68017578,-7300.0,-3543.36450195
50,-5626.0,-5087.56787109,-5244.63964844,-4784.80761719,-5183.40234375,-5332.74072266,-5313.91113281,-5136.42480469,-4949.1328125,-4953.33349609,-4937.6171875,-4954.04199219,-4619.63720703,-4881.25195312,-4964.99121094,-4842.66650391,-4493.88867188,-4315.64453125,-4133.06689453,-4000.46484375,-3937.93896484,-3926.68139648,-3653.46044922,-3166.43212891,-3194.94067383,-2169.10449219,-660.222229004,957.911132812,190.619537354,1032.79748535,1434.14819336,1615.25427246,1962.59265137,1335.42224121,786.530883789,759.740722656,873.577758789,672.29876709,584.325927734,640.066650391,465.641967773,247.07901001,270.370361328,433.21975708,365.553100586,461.333343506,282.63949585,284.343200684,170.874069214,191.217285156,308.753082275,259.066680908,315.15802002,431.36541748,489.466674805,469.469146729,371.679016113,-190.14074707,-71.703704834,-117.328392029,-129.629623413,-87.4000015259,65.0370407104,-196.288894653,-284.506164551,-808.296325684,-2562.62231445,-3269.24316406,-4206.34277344,-4384.98535156,-4415.38916016,-3824.94311523,-4220.11132812,-4097.93603516,-3521.23461914,-2848.96289062,-3100.12597656,-4016.55297852,-3983.859375,-3450.84448242,-4389.98779297,-4435.39990234,-4676.77294922,-3765.44189453,-1892.44445801,-93.0246887207,-77.6074066162,-55.0740737915,-68.2296295166,-60.8592605591,-34.0,49.6839523315,187.871612549,322.629638672,108.118202209,258.32699585,722.840881348,356.752380371,249.698699951,281.755554199,248.259262085,215.827377319,267.666656494,290.985198975,247.997528076,193.666671753,125.03704071,106.901237488,127.844444275,95.4098739624,151.641967773,176.977783203,175.419754028,30.597530365,23.148147583,2.51851844788,10.7777776718,89.3777770996,209.456787109,402.809875488,248.407409668,175.335800171,99.2172851562,183.962966919,384.259246826,367.827148438,500.933319092,573.311096191,713.760498047,459.629638672,338.222229004,419.641967773,1016.74816895,2279.19506836,2332.73828125,1940.77783203,933.33581543,931.592590332,1626.58520508,2378.51611328,1721.19750977,1699.78515625,1244.58520508,810.780273438,896.422241211,1409.70373535,1274.14562988,817.844421387,674.538269043,675.599975586,758.148132324,904.004943848,429.128387451,500.755554199,172.565429688,146.629623413,294.362976074,684.987670898,79.1185150146,322.874084473,383.716064453,-113.70123291,14.8817968369,-674.254333496,-1015.78027344,-1304.92590332,-1282.24438477,-1540.94812012,-87.1555557251,-4083.37280273,-5724.74072266,-5279.77783203,-5579.81494141,-5397.22558594,-2695.68164062,-4236.92333984,-4416.23193359,-4686.80761719,-4663.54052734,-4265.76123047
49,-5248.97753906,-4643.76025391,-5561.72900391,-5384.55126953,-5322.06298828,-5355.02490234,-5429.44580078,-5232.58007812,-5076.82763672,-5055.09326172,-4865.09375,-5067.93847656,-5066.52880859,-4983.41552734,-5007.47558594,-4758.5,-4714.30224609,-4535.74951172,-4212.35986328,-4074.43994141,-4025.73339844,-4037.19995117,-3839.76147461,-2299.84887695,-3066.01586914,-2724.62304688,-2498.13671875,-72.5659255981,557.349121094,937.020324707,2034.60302734,1307.90979004,1547.88085938,1604.0871582,1078.80847168,856.240478516,810.100585938,888.193359375,663.318969727,551.401672363,693.43927002,303.932434082,325.570770264,360.727416992,446.690368652,483.555541992,335.048400879,293.562469482,346.838531494,273.027160645,308.281494141,302.382232666,421.290863037,455.971343994,242.057785034,552.711120605,-271.601470947,761.728881836,-285.724945068,-55.1887550354,-291.792602539,194.48147583,123.737281799,97.4222259521,-302.172332764,-675.059265137,-2334.7956543,-2732.36083984,-2866.1875,-4277.39599609,-4436.09667969,-4226.54492188,-3770.80444336,-3867.83398438,-3798.33666992,-3601.28881836,-2469.04492188,-3783.14819336,-3902.11108398,-3956.69921875,-4412.25195312,-4816.95996094,-4850.74902344,-4521.01904297,-1060.51855469,-168.604934692,-152.852340698,-109.9451828,-83.1535797119,-2.34001612663,58.1555557251,176.677536011,226.289382935,352.04296875,159.398513794,447.815429688,424.794708252,735.790588379,340.057281494,554.142211914,1012.02716064,227.958023071,430.762969971,298.104705811,279.904693604,233.362960815,148.779266357,94.7772827148,103.231109619,95.699256897,120.822219849,149.533340454,54.6622238159,21.7609882355,36.296295166,-6.16790103912,-2.57135796547,39.7866668701,224.861236572,326.040008545,203.629623413,80.1787643433,109.680496216,298.124450684,518.993103027,464.6222229,536.906677246,888.93927002,1020.72198486,859.26965332,571.948120117,740.874572754,738.831115723,2363.55761719,2872.1628418,1839.42224121,1630.06030273,1461.45080566,1786.59851074,2312.66625977,1820.13574219,1651.70959473,1378.63012695,902.890380859,1323.57775879,1354.37280273,1282.76342773,952.696289062,715.59753418,544.613830566,726.911132812,952.8671875,458.989624023,315.457763672,294.120483398,85.8913574219,182.777770996,59.9960479736,26.5392589569,724.374816895,260.777770996,18.1047344208,-46.1911125183,-850.728881836,-1107.93383789,-1538.38513184,-1963.55358887,-477.252807617,-2590.61621094,-6653.125,-5599.97265625,-5586.16455078,-5520.55908203,-5726.23974609,-4638.11376953,-6181.16064453,-5962.390625,-4810.87841797,-5051.80664062,-4734.4296875
48,-5542.13330078,-5285.33642578,-5655.94091797,-5683.67089844,-5407.60888672,-5469.14794922,-5441.43994141,-5273.51708984,-5163.31103516,-5077.09326172,-5032.81494141,-5174.52880859,-5182.37792969,-5050.23535156,-4846.32324219,-4686.62207031,-4745.96142578,-4556.57617188,-4483.30664062,-4414.47558594,-4173.37060547,-4084.60888672,-3839.94677734,-3806.94824219,-2362.35546875,-2503.75366211,-2628.08422852,-1471.93713379,860.408752441,101.607078552,995.476928711,843.647644043,1298.26477051,1212.22106934,1140.04418945,953.986877441,773.217834473,642.485351562,596.911560059,621.62689209,476.725036621,469.418579102,345.68460083,397.709594727,468.163452148,488.591644287,-94.6304321289,93.4354782104,452.217773438,403.485931396,284.503692627,300.693328857,443.262207031,421.943695068,463.173339844,333.185180664,369.158508301,-23.2395191193,-65.2355575562,-58.2444458008,-483.177764893,456.982208252,195.851852417,127.893333435,-185.813339233,-166.111114502,-354.302215576,-896.389587402,-1009.20001221,-4341.31542969,-4518.03857422,-4302.57763672,-4499.05322266,-4458.53613281,-3877.38525391,-3412.91113281,-1439.49926758,-3374.45483398,-3983.24438477,-4212.64453125,-4367.2890625,-4555.74658203,-4841.48876953,-4459.18798828,-3579.75561523,-3563.97045898,-323.194061279,-134.462219238,67.3822250366,118.162117004,103.065177917,132.94519043,163.465286255,317.440002441,568.125915527,649.704223633,512.897766113,454.765930176,464.585174561,109.36000061,289.422210693,115.491851807,453.182220459,322.949615479,196.650375366,195.977783203,195.395553589,125.814811707,121.506668091,168.342224121,212.111114502,80.3466644287,101.102218628,-0.109629631042,-9.09333324432,-13.8518514633,-15.1614818573,36.0,181.81036377,241.608886719,194.288894653,103.533332825,98.1066665649,375.42666626,392.53036499,378.200012207,700.133361816,729.444458008,643.385192871,657.204467773,866.866638184,799.690368652,388.0,448.554077148,1699.61486816,2873.66674805,1156.78820801,1203.92150879,1897.37329102,2687.93041992,2285.72583008,1779.68884277,1014.47259521,1272.65185547,1960.77331543,1283.27404785,1019.91552734,783.684448242,706.850341797,592.03112793,914.333312988,744.407409668,168.668151855,245.240005493,385.678527832,477.111114502,88.448890686,48.7777786255,155.106674194,382.533325195,-127.0,-32.7140731812,-92.4400024414,-1915.06079102,-2496.73339844,-3361.28881836,-3284.37475586,-2153.49047852,-6472.27978516,-5125.69189453,-5492.94824219,-5668.40820312,-5597.36572266,-5897.37548828,-6301.21582031,-6349.63720703,-5544.44433594,-5833.55566406,-5366.04443359,-5550.82226562
47,-5736.26660156,-5658.04931641,-5645.61035156,-5642.86816406,-5730.94140625,-5521.09716797,-5460.18554688,-5336.08300781,-5221.77099609,-5117.39990234,-5163.56689453,-5247.46142578,-5247.59130859,-5210.2734375,-5136.15234375,-5146.90380859,-5006.08642578,-4803.62109375,-4648.28466797,-4474.29052734,-4318.67919922,-4174.44433594,-4152.10253906,-3920.28173828,-3184.73339844,-2601.85620117,-2712.85327148,-2541.65576172,12.2077474594,780.90411377,312.866577148,502.950408936,1493.80151367,1514.38891602,1169.81530762,1318.57287598,876.97857666,890.790344238,827.773193359,693.220397949,568.968933105,424.617218018,378.572296143,402.851257324,427.644989014,5.18016004562,129.927764893,23.798210144,484.679992676,447.264678955,297.587646484,334.278503418,309.72543335,512.048400879,417.839996338,381.125915527,198.123626709,156.952590942,0.403281033039,-47.3530845642,-211.192596436,-110.308639526,-83.2419052124,174.782226562,-140.122467041,-80.5160522461,-144.59703064,-302.594573975,-391.211853027,-4236.44824219,-4592.01269531,-4555.79833984,-4388.40429688,-4351.15917969,-3924.04638672,-3144.97045898,-2972.515625,-3087.88208008,-3012.41333008,-4344.65087891,-4528.02246094,-4307.95996094,-4479.51660156,-4857.19628906,-4790.06835938,-4517.70605469,-4448.83740234,-3262.60595703,-132.81036377,0.837542653084,105.555557251,133.745178223,687.876037598,387.180206299,927.03515625,1176.32836914,2006.04736328,1573.62023926,325.34387207,127.804443359,91.1555557251,181.528396606,347.277038574,830.984191895,54.4320983887,118.733329773,32.3975296021,74.08543396,90.5644454956,-4.63012361526,76.5728378296,118.837036133,133.912597656,-4.24444437027,-17.1644439697,-22.8864192963,-28.4888896942,-15.2977781296,85.8617248535,112.770866394,209.674072266,116.106170654,122.70716095,243.656295776,294.959014893,370.266662598,548.564453125,455.586669922,432.427642822,517.645935059,408.617279053,708.195556641,1943.11254883,2234.70922852,607.054321289,1912.22216797,2960.00341797,1454.66271973,1507.0,2946.54516602,2881.98022461,1890.06665039,1573.10717773,1274.67504883,1405.43115234,1088.85180664,1306.46716309,989.497802734,640.096801758,758.208862305,1277.43701172,487.147644043,142.586669922,226.31111145,211.496795654,152.565429688,58.5614814758,58.6222229004,322.473571777,748.983703613,-1015.85925293,10.6176700592,-1536.13330078,-3567.31298828,-3376.13671875,-3417.58520508,-139.713592529,-2993.98364258,-4678.55126953,-4872.35009766,-5189.27783203,-5618.61328125,-5853.64404297,-5817.50585938,-6283.1328125,-4949.11132812,-5904.59960938,-5639.95556641,-5717.97119141,-5615.01904297
46,-5666.13330078,-5588.74169922,-5758.01025391,-5901.46240234,-5606.86914062,-5460.79248047,-5466.29101562,-5402.09082031,-5221.7421875,-4925.24902344,-5202.53564453,-5210.37792969,-5284.73046875,-5236.98291016,-5317.11083984,-5147.65185547,-5039.2890625,-4813.98828125,-4636.90673828,-4486.84033203,-4367.15917969,-4278.64746094,-4189.82910156,-3924.67041016,-3298.43408203,-1586.08874512,-2842.68481445,-2573.11328125,-14.0645809174,979.044555664,455.614807129,1137.48522949,770.212524414,1657.00341797,2020.60754395,1538.5045166,910.548217773,819.361755371,911.886108398,757.104492188,577.025878906,399.461090088,361.898590088,386.102783203,311.792785645,484.627624512,371.60949707,194.873901367,208.362884521,178.861114502,218.686416626,312.385192871,150.61579895,374.453826904,131.160003662,596.761535645,196.80456543,5.54518508911,26.7204933167,-45.2824707031,41.4888877869,-444.950622559,-64.1767883301,-144.039993286,-86.9911117554,-70.60987854,-128.85925293,-2506.45654297,-4348.14990234,-4800.30957031,-4590.93847656,-4513.87646484,-4242.41357422,-4140.44677734,-3391.51953125,-3285.11108398,-1904.04785156,-3076.18579102,-3205.00585938,-4046.25390625,-4750.32568359,-4060.37329102,-4347.08007812,-4729.62402344,-4813.82226562,-4810.45703125,-4830.50146484,-4719.41503906,-976.691833496,-55.1802482605,82.6257400513,566.900268555,348.618774414,469.112579346,2881.13574219,1800.27905273,636.217102051,586.001953125,210.681488037,114.875556946,80.758026123,224.748153687,358.527404785,744.647399902,147.848892212,27.0814819336,-18.4019756317,6.3520989418,-11.7555551529,-4.0745677948,50.8716049194,124.281478882,25.1679019928,-17.1249389648,-26.3318519592,-29.0,-29.0,-20.4488887787,35.7802467346,137.001968384,30.5703697205,69.4933319092,109.075057983,74.7762985229,208.910125732,333.320983887,494.555541992,338.0,353.295318604,358.539245605,498.15802002,347.0,1547.59997559,354.210357666,706.818786621,1047.31115723,1356.98376465,2308.1796875,1283.23852539,1731.34960938,1753.11853027,2096.67993164,1472.02966309,1390.33532715,1273.70666504,1002.92095947,945.180236816,1093.22070312,995.993591309,1009.44689941,808.755554199,329.165924072,129.663208008,140.764450073,132.716537476,203.577774048,146.139251709,159.98765564,777.410400391,-51.0888900757,-1335.94812012,41.5581855774,-848.991088867,-3303.38427734,-2486.25390625,197.696289062,-1495.35461426,-8188.31787109,-4788.79394531,-4945.06445312,-5377.02246094,-5673.00341797,-5575.93701172,-5686.42578125,-6060.25634766,-4921.16796875,-5656.75244141,-5790.61181641,-5691.41015625,-5568.25146484
45,-5696.0,-5680.39990234,-5812.11132812,-5362.33349609,-5754.33349609,-6025.88867188,-6308.95703125,-5433.79980469,-5366.88867188,-5202.20019531,-5330.22216797,-5332.22216797,-5308.46679688,-5307.11132812,-5326.26269531,-5161.0,-5042.64453125,-4861.91113281,-4682.60009766,-4488.51123047,-4396.44433594,-4258.73339844,-4147.97753906,-3914.37768555,-3670.02807617,-2627.61499023,-2846.26660156,-2778.37573242,24.9525966644,1021.12005615,1264.43017578,1038.36938477,2119.51098633,2030.87817383,2463.00146484,2262.05151367,1769.89855957,1208.26403809,983.827331543,762.325866699,628.771057129,425.302062988,315.036743164,309.047332764,322.138366699,409.421691895,207.002792358,159.562835693,240.587615967,14.130903244,172.457885742,350.333343506,140.431976318,205.44152832,402.583129883,393.675811768,109.483886719,-93.3333358765,38.355556488,0.0,-145.666671753,-115.333335876,-100.977775574,-89.8000030518,-54.8666648865,-62.444442749,-2888.33325195,-3613.88891602,-4753.90380859,-4675.20019531,-3459.44433594,-4365.48876953,-4137.20019531,-3570.53344727,-3322.46655273,-2980.33325195,-1833.4666748,-3096.9777832,-3272.46655273,-4013.15551758,-4327.77783203,-4785.20019531,-4234.37792969,-4367.91113281,-3991.26660156,-4927.77783203,-4595.04443359,-4708.53320312,-4281.06689453,-89.888885498,34.2094268799,567.0,758.02911377,2364.60009766,226.341308594,40.6029548645,0.80609023571,201.088882446,419.266662598,115.199996948,98.3333358765,575.911132812,388.066680908,191.800003052,1.15555560589,-36.0,-50.3111114502,194.0,-16.5073890686,3.42222213745,79.555557251,488.266662598,215.955551147,-3.51111102104,-25.2666664124,-25.8888893127,-23.0,-29.0,72.6888885498,187.0,29.0,54.3777770996,99.0,126.266670227,137.3777771,210.777770996,302.799987793,339.955566406,380.844451904,465.466674805,3588.77783203,673.044433594,255.399993896,338.977783203,617.044433594,1008.0,1490.19995117,1742.9777832,1264.5333252,2496.28881836,2011.77783203,1337.80004883,1190.04443359,1193.31115723,1077.59997559,947.222229004,1073.33337402,1460.59997559,872.555541992,956.022216797,925.0,184.777770996,144.266662598,199.800003052,237.6222229,412.111114502,85.1999969482,235.600006104,515.777770996,-2244.53344727,-235.777770996,146.488891602,-208.0,-2830.04443359,-21.9636573792,-1871.66662598,-7913.20019531,-5365.37792969,-4853.66650391,-5352.68896484,-5468.33349609,-5701.39990234,-6027.7109375,-5814.62207031,-5711.79980469,-2363.55566406,-5923.79980469,-6486.53320312,-5706.55566406,-5622.02246094
44,-5656.17773438,-5532.95458984,-5637.578125,-6063.54980469,-5721.21533203,-6148.23193359,-5757.60009766,-5467.27246094,-5540.91650391,-5477.15087891,-5455.85693359,-5445.05615234,-5316.10791016,-5447.21289062,-5575.671875,-5143.49609375,-5038.6328125,-4886.50146484,-4652.33837891,-4301.234375,-4222.81738281,-4192.54980469,-3261.16650391,-3852.27636719,-3603.09179688,-3212.18603516,-2834.92211914,-3007.07202148,50.0584373474,1370.8380127,1345.64526367,1381.45996094,1737.9855957,2079.48583984,1585.37255859,2784.86206055,1278.69567871,1394.73046875,2032.72888184,777.312438965,560.468688965,393.605072021,535.491821289,300.468811035,352.821868896,275.862915039,272.112945557,281.704864502,203.078765869,110.151847839,366.212341309,126.780555725,119.955039978,665.432189941,367.480895996,74.4573287964,-148.017776489,57.8562965393,-141.745178223,-130.12789917,-31.8666667938,-1965.83374023,-2974.10180664,-2896.7253418,-87.296295166,-48.3851852417,-3696.25195312,-4208.99365234,-4892.58789062,-4784.94970703,-4713.56298828,-4292.39892578,-3829.63989258,-3575.27099609,-3207.81884766,-2823.06665039,-2095.64599609,-2804.66430664,-3154.06518555,-2990.92895508,-4007.82714844,-4227.70654297,-5161.29248047,-3828.56152344,-5002.29492188,-4959.36035156,-206.119995117,-2193.08007812,-3181.89086914,-114.724937439,154.511108398,270.618560791,158.669540405,639.764465332,672.1875,-12.8453426361,516.673339844,-68.8666687012,229.457290649,616.595581055,632.066650391,313.049865723,108.10962677,52.4133338928,159.070129395,-67.5481491089,-1519.69091797,-1990.4720459,-2060.69335938,-1997.7713623,1632.82958984,881.288879395,232.916549683,22.8414821625,-21.2666664124,-22.5555553436,157.618759155,242.217773438,153.139251709,145.730377197,37.9185180664,65.5817260742,100.662223816,145.706665039,868.404968262,312.380249023,397.217773438,505.245422363,667.104675293,1518.30224609,529.940734863,1178.5625,3156.74511719,989.245910645,1037.9753418,853.733337402,1731.70422363,790.821228027,1002.83557129,1634.53881836,1238.88891602,1068.69628906,1337.4005127,1345.95263672,1001.31555176,911.242004395,1107.13574219,1076.65930176,994.302246094,1084.03649902,444.792602539,181.600982666,195.442474365,238.6222229,719.359008789,688.985168457,65.4400024414,617.36541748,-259.554077148,-2021.1081543,-460.592590332,444.874847412,205.998291016,-42.5718536377,-569.841491699,-8349.74121094,-5319.09863281,-5158.61279297,-5452.86962891,-5398.41601562,-5319.79003906,-5771.52880859,-5753.13134766,-5597.95410156,-5464.16162109,-5530.98535156,-5828.55615234,-5651.28466797,-5633.29345703,-5727.55078125
43,-5707.13330078,-5264.078125,-6510.74951172,-5457.47558594,-5179.41552734,-5766.54296875,-5684.3671875,-5802.68310547,-5668.11132812,-5525.47558594,-5245.20507812,-5357.72558594,-5487.828125,-5099.64648438,-5072.52539062,-5174.81494141,-5044.25244141,-4573.84814453,-3920.85766602,-4263.71972656,-4303.13818359,-4166.76611328,-4056.29736328,-3970.77001953,-3664.16601562,-3344.74536133,-2931.25708008,-3051.76586914,154.780181885,1701.0604248,1434.91906738,1325.20861816,811.378112793,1329.67163086,1782.91333008,2293.4519043,1637.47949219,1694.90112305,1190.80358887,1062.44262695,728.904846191,461.307281494,411.591644287,356.276123047,324.717315674,351.797393799,224.529129028,201.105712891,234.799194336,220.720626831,203.748153687,248.730072021,233.863983154,237.510284424,373.34564209,-136.385177612,-165.878555298,-115.656944275,-93.4093856812,-164.42829895,-2411.01171875,-3934.10961914,-3811.98876953,-4376.05371094,-2531.24755859,-82.5530853271,-3470.48144531,-4703.25585938,-4861.25244141,-4794.70800781,-4844.40234375,-3873.71801758,-3713.91992188,-3656.40795898,-3220.13818359,-2081.75561523,-2917.53076172,-3356.06518555,-3292.19555664,-2639.11499023,-5316.04931641,-4021.28881836,-4762.05664062,-5280.76953125,-1682.38818359,-3010.55053711,733.190612793,1239.08154297,867.190124512,774.733459473,1231.33459473,478.660247803,-94.9664230347,-761.602844238,-2649.51513672,-97.7629623413,279.332122803,-18.6153087616,-4.38000631332,620.377807617,1339.58276367,227.355560303,508.376281738,517.602966309,-22.7570362091,-1857.50366211,-2094.84985352,-2217.66064453,-2170.11108398,-2120.4934082,-1275.5357666,1601.20739746,971.037536621,689.941223145,-25.2192592621,-11.0271606445,46.6696281433,104.6222229,214.718017578,115.546173096,61.0148162842,90.4770355225,234.82321167,191.663696289,188.169387817,1053.65673828,604.897766113,618.309143066,1878.93823242,2410.82519531,1975.19006348,1765.03405762,2543.76733398,3438.92895508,928.126403809,588.933349609,390.9871521,1828.04052734,1018.36590576,1371.0369873,1374.98522949,1666.56152344,1469.02416992,1271.02709961,921.586669922,1179.42712402,1089.70812988,1067.15551758,1293.49682617,1083.51855469,414.725921631,265.052825928,124.024200439,347.311096191,851.208374023,143.244445801,-35.3855667114,304.741729736,-3484.73730469,-3711.60888672,-1389.0637207,271.162475586,112.371498108,-1653.5012207,-7018.95703125,-5091.41503906,-5046.07910156,-5131.84521484,-5492.61474609,-5424.57666016,-5399.95556641,-5869.24902344,-5742.14990234,-4693.77587891,-4877.27685547,-5124.40234375,-5113.54296875,-5500.0546875,-5289.78710938,-5600.81103516
42,-5458.0,-5859.54980469,-5841.71533203,-5763.96875,-5613.78808594,-5933.91113281,-5845.47558594,-6135.43359375,-5461.02978516,-5575.31982422,-5554.25195312,-5279.44873047,-5354.7421875,-5183.94384766,-5138.54394531,-5008.84423828,-4985.09472656,-4614.02832031,-4643.81347656,-4567.84716797,-4379.12597656,-4262.01757812,-4022.74658203,-3748.90966797,-3788.26611328,-3381.68139648,-3016.58081055,-2913.93432617,564.523925781,1372.70141602,1637.18273926,1635.19104004,2209.41577148,1564.45422363,1481.91589355,1962.82214355,1984.12976074,2069.56176758,1243.78967285,1206.32373047,786.481933594,556.739074707,317.086212158,332.700500488,275.463439941,211.70274353,213.375839233,277.359130859,251.736328125,151.997283936,386.053375244,549.021240234,420.97064209,55.6958885193,176.261428833,-15.5071001053,-190.788574219,-107.339378357,-2428.47583008,-3604.17163086,-4467.40966797,-4758.05957031,-4507.5859375,-4841.17333984,-3927.35693359,-3561.39990234,-3825.89331055,-4683.50097656,-4909.52001953,-4876.06201172,-4884.99267578,-4178.08740234,-4408.52001953,-3888.96899414,-2994.11547852,-2370.48876953,-2451.09936523,-2446.86816406,-3623.26660156,-3849.34960938,-2614.14819336,-4962.58642578,-4569.90087891,-5303.60449219,-3777.90673828,-2560.20751953,778.720458984,748.91998291,888.637023926,759.508117676,389.066680908,641.662536621,-2128.93041992,-2540.03100586,-2739.2902832,-593.874084473,6.95634317398,973.211547852,-27.3439350128,-1201.43994141,472.955566406,713.989624023,861.039978027,244.857772827,43.0924491882,-2086.0,-2089.4621582,-22.3241863251,-1369.07995605,-2135.57641602,-1912.0369873,118.453330994,646.940734863,1883.59851074,589.835571289,-1.71851849556,-23.5007400513,184.466659546,133.211853027,55.9807395935,84.4666671753,114.16444397,128.238525391,206.662216187,215.367401123,2081.05932617,2736.33325195,3418.90380859,3755.18530273,4015.484375,4616.64453125,1833.98815918,1375.51550293,2594.09472656,1360.65185547,815.333312988,997.284423828,981.401489258,2244.60888672,1556.78076172,953.488891602,1004.33331299,1215.99401855,969.158508301,1307.35998535,1383.47412109,1529.24291992,1517.35107422,1422.55700684,1387.5970459,884.533325195,193.851852417,335.823699951,604.066650391,1977.67700195,62.4244842529,-2942.14233398,-2950.5925293,-3649.83251953,-3652.1628418,-553.192565918,-968.605895996,-1098.37329102,-5549.82519531,-5246.12304688,-5058.86669922,-5230.62060547,-5432.75976562,-5563.16894531,-5519.59863281,-5622.94091797,-5519.39990234,-5208.96582031,-5396.24316406,-5390.65332031,-5437.74072266,-5739.93164062,-5405.43554688,-5661.50976562,-5274.16162109
41,-5613.91113281,-5922.93896484,-6048.82714844,-5868.15722656,-5716.07519531,-5649.53564453,-5733.08154297,-5425.82177734,-5495.69726562,-5486.73779297,-5278.00244141,-5122.92626953,-5228.83544922,-5117.10546875,-5029.33789062,-4860.90380859,-5183.84472656,-4776.01025391,-4681.06201172,-4538.88476562,-4521.92578125,-4306.69775391,-4064.12451172,-3960.5378418,-3754.00634766,-3262.00317383,-2962.68847656,-3114.79760742,316.4480896,676.012329102,1615.34594727,1461.92089844,1892.94506836,1422.38830566,1281.25878906,2280.48168945,1913.4354248,2404.02124023,1629.82263184,1094.50378418,800.001098633,552.521484375,341.725830078,359.046386719,229.764678955,218.015060425,214.16885376,260.717193604,225.61366272,287.691741943,375.49786377,463.784576416,409.777404785,12.5951738358,-9.59113883972,-23.3330230713,-49.9678726196,-2543.24462891,-4003.75756836,-4623.99365234,-4909.56005859,-5052.81982422,-5107.49316406,-5042.57226562,-5176.41113281,-3612.2902832,-3449.91845703,-4546.70019531,-4875.15039062,-4940.43457031,-4924.953125,-4359.22558594,-4276.30664062,-4062.86328125,-2655.43896484,-2040.36291504,-2212.76831055,-3169.6015625,-3470.30224609,-4030.32788086,-4781.08154297,-4983.16455078,-4625.29541016,-5307.82617188,-5081.38232422,-3590.6394043,1132.98327637,839.45904541,1192.02416992,1201.93286133,537.755554199,-905.57232666,-2553.94165039,-2673.04882812,-1705.11206055,-587.844421387,-1895.13635254,-0.576417267323,346.773132324,-254.555557251,88.5950622559,289.668151855,114.516586304,205.558517456,-7.10841798782,195.259262085,729.490356445,883.296813965,830.013305664,-48.7632217407,-216.265411377,2238.42358398,2397.6730957,179.507659912,1905.63549805,-6.94567918777,-8.37777805328,-30.0,25.4730873108,67.7674102783,112.0,131.677032471,218.282470703,241.00592041,247.053329468,1015.55059814,446.755554199,3204.51464844,4025.53881836,4590.94384766,1333.93823242,984.023193359,940.522949219,899.048400879,937.637023926,1169.0,1029.94470215,1222.43994141,1690.7199707,1518.65332031,1203.79504395,1139.43701172,1330.5802002,1341.87304688,1028.81774902,1317.08642578,1728.31262207,1548.60595703,1137.47802734,459.766906738,492.985198975,3.17777776718,546.411865234,341.90222168,1321.11999512,-1631.74572754,-3305.07543945,-3541.99462891,-3431.52734375,-3632.82910156,-494.740753174,-855.925415039,-3958.10668945,-5404.62353516,-5300.046875,-5261.44970703,-5293.72265625,-5505.53759766,-5628.41796875,-5551.45996094,-5590.39746094,-5666.01757812,-5033.38818359,-5401.89648438,-5606.93164062,-3911.23217773,-5502.20019531,-4933.21484375,-5674.34130859,-5872.40917969
40,-5144.11132812,-5628.12597656,-6112.64208984,-5742.08886719,-5754.79980469,-5543.46923828,-5711.75537109,-5667.56542969,-5549.18261719,-5597.86669922,-5329.66650391,-5200.07666016,-5255.00732422,-5134.24755859,-5229.94824219,-5378.33349609,-5251.5703125,-5224.89941406,-5527.79980469,-4803.10351562,-4352.51855469,-4387.08154297,-3801.70117188,-2325.18457031,-4292.95556641,-4667.58642578,-4459.46679688,-3779.5,227.067443848,120.493766785,1661.37866211,2063.56201172,1759.0291748,1657.69799805,1558.12512207,1641.30163574,1955.21520996,2808.77197266,1444.77416992,1031.95324707,709.052368164,475.399078369,336.822509766,236.337875366,217.171035767,186.923797607,211.853683472,244.933547974,320.838500977,257.071166992,341.987792969,323.075256348,193.422241211,-20.8209075928,-85.133895874,-160.065795898,-2264.12646484,-3835.87890625,-4808.14550781,-5043.78515625,-5086.85205078,-5174.50146484,-5201.97265625,-5198.61621094,-5040.92578125,-5415.78417969,-4492.28125,-4203.30615234,-4715.87890625,-4969.68164062,-4662.25927734,-4600.48388672,-4610.55566406,-3750.6394043,-2083.95068359,-1717.85180664,-1632.84448242,-2989.02709961,-3851.10375977,-3920.4050293,-4770.04931641,-4603.62207031,-4412.6640625,-4878.28417969,-5191.25195312,-2129.43212891,482.637664795,432.348144531,528.642211914,1110.24938965,6.29318475723,-1493.54321289,72.1184463501,-2872.74072266,-1150.59008789,-1598.22216797,-3509.5703125,-2044.79504395,501.308807373,-1.23527359962,192.197525024,880.762939453,-19.0097293854,-67.7358016968,232.464202881,716.481506348,1032.24194336,1042.07897949,1061.06665039,1950.74072266,1965.87658691,1600.09631348,865.133361816,2300.4765625,-8.87407398224,-11.4567899704,-8.37777805328,291.333343506,73.6469116211,72.2271575928,162.740737915,178.486419678,205.777770996,425.162963867,425.308654785,1499.12341309,2024.62219238,3933.28881836,1933.20983887,1479.71850586,1059.69140625,1038.28894043,995.851867676,939.380249023,828.824707031,795.888916016,1069.47900391,1191.56298828,1890.68151855,1893.84692383,1509.16052246,1286.95556641,1361.46911621,1021.00738525,1255.59997559,1364.91357422,1597.84936523,880.933349609,342.153076172,179.464202881,-10.3437519073,57.0666656494,11.728395462,237.333328247,-15.1714525223,-2431.22216797,-2951.80737305,-1003.85443115,-1500.83703613,-2511.57836914,-4.38482093811,-97.3608627319,-4286.04443359,-5165.08642578,-5328.22705078,-4779.14794922,-5391.99267578,-5620.07421875,-5514.88867188,-5477.07421875,-5529.50634766,-5527.17773438,-4731.34570312,-5231.79003906,-5699.16308594,-4832.92578125,-5803.21484375,-4230.53320312,-5549.79980469,-5640.32080078
39,-5500.26660156,-5030.49023438,-5675.69042969,-5895.92871094,-5479.94824219,-5258.01464844,-5571.46679688,-5441.24169922,-5390.52294922,-5644.65332031,-5395.63720703,-5045.74658203,-5978.83789062,-5351.65185547,-6145.39111328,-5356.35546875,-5269.54833984,-5238.90087891,-5245.53320312,-5317.84570312,-5249.54052734,-5124.2578125,-4858.9453125,-4761.97949219,-4551.21777344,-4492.05175781,-4331.10986328,-4022.62670898,-522.472412109,17.1640930176,1897.55004883,1528.8112793,2040.5802002,1557.03308105,1917.02416992,1445.0958252,2867.77294922,2829.31030273,1850.14306641,1190.62561035,758.165771484,411.581298828,342.829833984,246.414459229,267.567443848,185.660614014,151.669235229,175.952270508,280.250610352,197.020553589,648.253234863,423.757568359,18.2738761902,-39.1975135803,-2328.34106445,-2782.90917969,-3529.29077148,-4630.86669922,-4334.14355469,-5064.86914062,-5161.19726562,-5238.08105469,-5312.51269531,-5302.03613281,-5371.65429688,-5458.33642578,-5402.2890625,-4545.29785156,-4881.84570312,-5131.41796875,-4724.17041016,-4441.08300781,-4186.453125,-3356.30810547,-1563.41162109,-1320.86669922,-150.864807129,-2452.23999023,-3718.96899414,-4456.14208984,-4734.88867188,-5054.60009766,-5441.41015625,-4464.10058594,-4671.26220703,-241.414810181,97.4026641846,248.479995728,632.429626465,687.894836426,-45.6666679382,-661.586669922,-1966.18811035,-2842.36450195,-256.514068604,-1422.11108398,-2455.77783203,-3504.09326172,-392.706665039,-2085.32006836,-1663.0,722.927429199,-254.510513306,-313.514068604,771.254821777,1146.68884277,946.343688965,963.162963867,1405.40002441,2074.99853516,1130.12597656,1467.96447754,2156.78955078,1842.32885742,1128.50671387,-6.44444465637,-3.90962958336,-24.2800006866,408.694824219,75.1940765381,121.022224426,170.365921021,191.730377197,426.977783203,3463.20898438,2129.12597656,5062.62646484,4866.18798828,1397.26818848,1162.0,1157.17041016,1125.06518555,1119.2800293,1073.27856445,877.317016602,3124.19995117,3209.58666992,3055.92138672,3244.73779297,3708.52148438,1944.80737305,1371.38220215,1300.87109375,2368.20581055,1367.31994629,1234.20739746,1608.73181152,914.595581055,11.6503705978,-9.57481479645,-20.3111114502,-20.7825088501,-42.7318534851,32.6133346558,-46.7451858521,-959.733337402,-3024.44897461,-521.794067383,-2562.20898438,-1620.62695312,270.540557861,-205.201477051,-5779.53320312,-5269.35839844,-5591.78222656,-5428.22216797,-5581.91992188,-5681.83398438,-5750.74658203,-5499.98388672,-5517.91845703,-4880.14648438,-4901.43994141,-5632.81933594,-5672.14648438,-5975.52587891,-6081.47119141,-5490.31542969,-4966.50683594,-5450.13769531
38,-5509.26660156,-4987.51611328,-5304.41650391,-5475.08740234,-5261.20898438,-4764.12597656,-5740.50976562,-5510.48144531,-5626.13427734,-5216.57324219,-5118.80224609,-5297.75048828,-5292.76757812,-5978.76757812,-4937.42089844,-5501.47412109,-5246.39648438,-3514.17919922,-5114.59130859,-5452.96386719,-5455.74560547,-5279.58642578,-5123.32080078,-4832.29638672,-4904.53759766,-4651.42236328,-4611.68994141,-4285.23095703,-3609.35058594,77.9175720215,1581.70959473,1411.9005127,1497.23693848,2131.4465332,2207.32421875,1839.10925293,2843.97363281,2309.16674805,1371.68994141,1033.66455078,761.641784668,480.278533936,321.158660889,222.179489136,258.124664307,114.564033508,113.345283508,180.903747559,300.001953125,242.124832153,772.267578125,127.580200195,-0.397092163563,-128.166061401,-3025.30517578,-3855.12133789,-4478.62304688,-4822.58447266,-5051.62988281,-4678.3359375,-5114.15087891,-5216.54052734,-5342.34472656,-5345.55126953,-5420.60839844,-5426.06933594,-5356.43261719,-5246.75097656,-5194.26416016,-4620.96142578,-4383.28417969,-3784.66479492,-3188.08007812,-3270.33618164,-1447.07409668,-1895.34814453,-1820.73852539,-2898.24536133,-3451.90234375,-4364.60839844,-5090.84179688,-4589.89355469,-5209.76904297,-4238.65478516,-5090.2890625,-3024.69873047,170.708312988,427.685913086,268.290374756,983.927185059,-1061.37780762,-2490.38476562,-2852.12451172,-2863.859375,-2801.31347656,-342.251861572,-272.711303711,425.930725098,654.887390137,-2708.0,-3772.59008789,1042.94213867,61.3670272827,-350.263702393,772.862243652,981.148132324,1517.04833984,1136.42712402,1509.07116699,1466.36694336,816.459289551,1096.52893066,2133.64208984,1298.10424805,1653.05041504,-12.9604940414,0.0,-13.351111412,403.286407471,576.32244873,139.007400513,208.355056763,218.81678772,553.423706055,744.528381348,1495.16540527,4132.1953125,3937.13720703,3362.28198242,1283.92004395,1242.38024902,1220.21533203,1257.61779785,1445.01977539,4107.72119141,3393.37768555,2703.0612793,2769.04980469,4244.13916016,4350.03125,3735.79248047,2631.45043945,1512.27648926,1134.0390625,1364.92883301,1049.19506836,1228.22766113,507.290374756,16.0666675568,1.72790122032,-18.0444450378,-45.9125938416,-65.6202468872,41.5155563354,398.53729248,-1255.95056152,-1768.0,-639.521484375,-2310.4597168,-1795.0489502,292.092803955,-349.350128174,-7492.09326172,-3822.16699219,-5688.15625,-5983.5703125,-5855.13134766,-5901.34423828,-5804.26513672,-5617.96142578,-5321.26416016,-3892.12451172,-5081.69140625,-5531.07763672,-5416.04296875,-5260.07910156,-5937.77490234,-5570.5703125,-3661.92407227,-5181.44970703
37,-5374.35546875,-5251.08447266,-5679.42578125,-5707.77929688,-5584.42675781,-5614.39990234,-5564.35107422,-4649.65673828,-5555.72167969,-5759.22998047,-5732.40234375,-5629.73779297,-5514.51855469,-5426.12207031,-5583.50585938,-5176.37060547,-5451.78173828,-5395.39990234,-5416.78222656,-5241.27978516,-5618.13720703,-5306.06347656,-5298.12744141,-4988.67773438,-4755.14941406,-4944.21484375,-4759.515625,-4478.47558594,-3718.54516602,40.307346344,93.4166030884,2525.97973633,1232.98571777,693.7265625,1635.03100586,1504.87329102,1978.94836426,2446.79125977,1910.29882812,1116.3293457,603.971374512,380.24017334,241.897094727,400.064361572,382.382843018,105.627838135,135.600082397,233.143585205,352.564697266,612.658447266,398.452728271,120.397125244,-12.8952646255,-2249.3684082,-3601.07666016,-4344.04638672,-4924.04833984,-4983.23095703,-4931.42285156,-4996.20849609,-5193.11083984,-5133.39648438,-5366.14208984,-5414.05322266,-5517.44824219,-5407.81494141,-5235.40869141,-5254.08203125,-4904.94775391,-4735.33935547,-3747.56298828,-3634.47509766,-3313.13769531,-1795.48840332,-1059.47424316,-3319.859375,-3487.96240234,-2186.17578125,-3057.42675781,-4157.46679688,-3822.10131836,-4945.99023438,-4593.88623047,-1701.171875,-5132.92431641,-2947.63208008,-0.942933499813,1.78251361847,992.435241699,175.430618286,-2704.08886719,-2787.62158203,-1478.6706543,-862.01776123,-89.220741272,6.59999990463,-174.174819946,-56.4128379822,-2988.48583984,-3597.27099609,-3661.44189453,-9.59983730316,-897.995544434,-348.623748779,-77.3872833252,1612.34814453,2440.96948242,2133.97973633,172.306671143,400.920013428,448.26171875,454.927398682,1669.63806152,1284.90966797,1304.70812988,861.469116211,-1.28888893127,-29.0,1251.06469727,2253.60839844,717.503723145,314.252349854,420.826660156,279.42666626,350.743713379,1257.76049805,5410.99560547,5132.03955078,3650.22216797,4089.75561523,1438.72595215,1459.73486328,2395.51855469,4898.83300781,4604.67041016,4105.64453125,3727.68554688,2699.00390625,2709.04736328,2959.0390625,3194.0,2941.19116211,1913.30566406,1451.76098633,1509.46228027,1005.16052246,1093.60290527,494.161468506,29.020740509,11.4187650681,320.437042236,0.636806964874,-74.0138244629,-20.3828258514,302.846923828,-1648.11352539,-1815.11706543,-1829.79211426,-461.964935303,502.50189209,385.726928711,-1357.87109375,-6156.61767578,-5484.98388672,-5698.89550781,-5875.88134766,-5918.13232422,-5825.89648438,-5700.42675781,-4042.85888672,-4739.81982422,-4679.03564453,-5183.36767578,-5259.08691406,-4973.16015625,-5224.91113281,-5604.66015625,-5407.04882812,-3104.40551758,-4427.01611328
36,-4775.79980469,-4305.14648438,-4410.34472656,-5162.86669922,-5572.29345703,-5771.44433594,-6178.49316406,-5807.75537109,-5719.90673828,-5853.75976562,-5774.73339844,-5833.47119141,-5710.10644531,-5797.36962891,-5588.16894531,-5459.79980469,-5396.94238281,-5363.38671875,-5473.75976562,-5356.64013672,-5293.65234375,-5228.25341797,-5199.64453125,-5336.72460938,-5006.57324219,-4714.88867188,-4879.60791016,-4658.0,-3937.29223633,-1283.55664062,199.360290527,2014.00830078,816.920532227,952.980529785,1816.90686035,1967.40319824,1918.99304199,1807.85961914,1709.79333496,1108.76989746,744.018310547,323.131988525,211.601989746,374.59664917,204.403686523,72.1977310181,125.565429688,267.404571533,337.111602783,928.022521973,258.604675293,58.9962043762,-4.74983310699,-2834.05639648,-4076.40795898,-4487.68847656,-4859.87548828,-4844.42041016,-5034.44189453,-4929.56005859,-4850.35449219,-4898.95996094,-5433.71875,-5481.31982422,-4871.90234375,-5007.57080078,-5154.26660156,-5130.52880859,-4780.70214844,-4039.47827148,-4035.15551758,-3444.34228516,-2803.52001953,-2129.97192383,-2801.11547852,-3326.39990234,-3319.94213867,-4125.09326172,-4384.64013672,-4312.81347656,-5280.04443359,-5415.52001953,-3680.34667969,-4633.04443359,-4290.01318359,-4576.79980469,-1487.56445312,-153.21333313,-1304.41333008,-1829.4888916,-80.4000015259,605.542236328,1056.92443848,1015.11999512,612.880004883,120.133331299,-242.973327637,-766.137756348,-3729.2578125,-4080.43994141,-3208.26660156,-3573.42211914,-1188.35998535,-658.693359375,-494.496551514,-3042.26660156,-2433.57788086,-882.222229004,424.320007324,365.453338623,330.3777771,309.906677246,376.444458008,2046.04443359,1552.31994629,1188.40002441,3513.58666992,1388.64001465,1438.91113281,1161.99560547,960.066650391,525.435546875,795.426696777,1395.49328613,1950.59997559,3544.11108398,2303.91992188,3968.76879883,4959.50244141,4705.7734375,3497.17773438,4243.02685547,5130.58642578,4917.35986328,4863.1953125,5026.0,4865.16894531,4366.81787109,3846.60009766,3332.15991211,3265.53344727,2089.98657227,1687.60449219,2062.80004883,1245.59997559,1213.71105957,1226.43115234,378.586669922,41.168888092,439.324432373,116.400001526,-41.7688903809,-75.5733337402,-38.3199996948,243.328887939,-1316.44873047,-789.266662598,-282.124450684,298.159393311,881.159973145,10.2964248657,-3358.31591797,-5735.68896484,-5664.3046875,-5834.60595703,-5990.33349609,-5811.55126953,-5938.32421875,-5386.29345703,-3474.96899414,-4701.94042969,-4830.0,-5720.79980469,-5631.88427734,-5393.16015625,-5088.64453125,-4213.09326172,-4927.20019531,-4752.66210938,-3855.7512207
35,-3759.44433594,-3446.62719727,-1903.67163086,-5564.40722656,-6006.08886719,-5969.32080078,-5958.17041016,-5719.46679688,-5729.50927734,-5818.11132812,-5772.39501953,-5907.57763672,-5719.97021484,-5631.81445312,-5730.15869141,-5703.28515625,-5476.30810547,-5468.79980469,-5228.22216797,-5372.91113281,-5233.71582031,-5150.10644531,-4801.40722656,-5285.11572266,-5145.99658203,-4747.55566406,-4799.32568359,-4687.72851562,-4190.75195312,-3362.90234375,1012.51556396,777.926696777,489.672180176,1342.29382324,1567.41955566,1622.55688477,2316.85986328,1887.48925781,1361.87084961,1111.0579834,598.477050781,374.141723633,237.693847656,355.186096191,92.0032119751,91.2937316895,213.27746582,417.96975708,628.39642334,266.319580078,112.67830658,27.5420761108,-18.090341568,-3396.98583984,-4406.11132812,-5120.74072266,-5198.29394531,-4990.29150391,-5064.69140625,-4753.91113281,-4546.70361328,-4953.40966797,-5466.76806641,-5492.0,-5540.66894531,-5100.07470703,-4483.43701172,-3802.66674805,-4485.57373047,-4021.79248047,-3870.65014648,-3149.93579102,-2054.60009766,-2758.15307617,-3229.48144531,-3252.03710938,-2753.91601562,-4393.31591797,-4720.78515625,-5044.37060547,-5216.59570312,-4541.66650391,-2768.07910156,-4052.33081055,-1553.28894043,-4268.83935547,-2244.04443359,77.3481445312,930.612365723,258.572845459,678.444458008,1185.74572754,1080.5802002,520.229614258,1090.27404785,148.765426636,-41.8740730286,-405.960479736,-456.014801025,-2994.51123047,-2990.71606445,-3231.87890625,-419.28729248,-269.267089844,-1813.07409668,-2421.33325195,-2192.19262695,91.9506149292,359.466674805,919.017272949,260.111114502,313.429626465,157.511108398,1233.65673828,1814.59997559,1588.62963867,776.308654785,1024.0222168,707.066650391,840.508666992,2069.70361328,868.567871094,1183.74316406,3131.42211914,2712.77539062,2354.55566406,1294.42224121,3930.5456543,4189.25683594,4670.16308594,4997.96289062,5181.15820312,5210.51123047,5051.37548828,4933.30126953,4922.44433594,4916.82958984,4872.00976562,4663.86669922,4255.28662109,3780.9753418,3750.45922852,2740.85180664,1698.5480957,1142.84448242,522.185180664,505.251861572,83.851852417,42.1333351135,161.320983887,-25.5555553436,-51.9901237488,-79.5160522461,-7.4957690239,6.58024692535,-128.98765564,-124.007408142,266.89642334,208.328720093,540.936645508,-19.1260986328,-6800.78271484,-5714.42236328,-5975.58300781,-5924.74755859,-6112.51855469,-6151.40478516,-5826.19775391,-5459.66650391,-4733.15039062,-4543.59277344,-4997.31103516,-6004.99267578,-5813.81982422,-5663.94824219,-5486.95068359,-593.491333008,-4326.00732422,-4889.60986328,-3689.15551758
34,-3896.82226562,-3086.12207031,-3562.35400391,-5883.80273438,-5812.94042969,-5744.77294922,-5779.67089844,-5596.984375,-5729.24902344,-5756.95117188,-5795.96289062,-5995.04638672,-5818.84423828,-5714.96533203,-5455.14697266,-5645.74804688,-5500.54541016,-5340.38916016,-5574.07128906,-5239.42382812,-5175.80712891,-5067.47021484,-5000.58789062,-5208.09960938,-5200.83105469,-4930.85693359,-4691.40673828,-4653.07128906,-4309.07421875,-3776.36547852,-4.87715244293,155.622421265,1117.65246582,320.268920898,1223.13989258,1998.90307617,2128.43383789,1854.42419434,1288.81384277,1058.69104004,515.093322754,259.86428833,180.369613647,150.552352905,76.6625747681,82.0682144165,175.472702026,188.353057861,333.376800537,162.184356689,47.3139305115,9.70477104187,-487.532104492,-4186.20898438,-4969.87109375,-5369.01708984,-5205.83056641,-5113.99267578,-4934.57763672,-4721.43261719,-4712.03662109,-4403.03173828,-5576.84179688,-5179.2578125,-5505.77197266,-4858.03222656,-5099.04443359,-4747.53125,-4037.85888672,-3693.64746094,-3518.0690918,-2163.77026367,-2455.00439453,-2942.23046875,-3489.8815918,-2877.87402344,-3932.42529297,-4981.12841797,-5072.07568359,-5378.13720703,-5176.83691406,-4287.95996094,-3932.15209961,-4208.19628906,-4458.28759766,-4331.52099609,-349.932342529,272.557037354,1085.58862305,973.629638672,1000.4888916,1453.17431641,612.114074707,-30.7762966156,-6.19999980927,20.1950626373,-77.3170394897,-409.001983643,-1336.49975586,-2789.51123047,-3321.70874023,-2145.59008789,-1731.21630859,-2882.02514648,-2682.19360352,-3007.79248047,-2578.15942383,-2200.87646484,1304.56445312,683.442993164,495.096282959,290.351104736,54.644443512,1176.23254395,1768.21630859,1943.23950195,1516.67504883,782.977783203,716.984191895,1225.43212891,799.844421387,1194.11401367,2544.80102539,2747.09179688,3024.83251953,2767.01489258,313.817779541,2531.69726562,5388.88378906,5089.46533203,5382.65185547,5474.56933594,5629.93505859,4989.76318359,5112.33447266,4988.0,4792.47509766,4661.87988281,4768.30517578,4634.02978516,4161.78515625,3526.16748047,2392.21191406,1417.47253418,1660.91113281,952.960510254,675.165405273,64.6874084473,38.0498771667,25.3081474304,1.39999997616,-17.822221756,-80.3155517578,-79.8977813721,-87.8869171143,-82.2666702271,82.1479110718,539.400146484,407.886535645,-1733.81970215,-1084.42224121,-9228.75292969,-5473.75537109,-4311.08154297,-5897.38964844,-6034.59521484,-6027.64697266,-5340.08447266,-5698.71386719,-4428.11132812,-3741.02905273,-5534.98681641,-6071.24169922,-6033.14306641,-5708.70507812,-5397.89892578,-5242.14892578,-3805.34960938,-3781.68896484,-2970.99121094
